# .PCD v0.7 - Point Cloud Data file format
VERSION 0.7
FIELDS x y z
SIZE 4 4 4
TYPE F F F
COUNT 1 1 1
WIDTH 260
HEIGHT 1
VIEWPOINT 0 0 0 1 0 0 0
POINTS 260
DATA ascii
-1.2362357 0.65456891 2.4430003
-1.20056 0.65612 2.4430001
-1.335507 0.6631 2.4430001
-1.3238735 0.6631 2.4430001
-1.233133 0.66077328 2.4430001
-1.20056 0.66077328 2.4430001
-1.181947 0.6631 2.4430001
-1.1772929 0.6631 2.4430001
-1.2464 0.64662862 2.46
-1.237029 0.64662862 2.46
-1.333086 0.65600002 2.46
-1.323714 0.65600002 2.46
-1.316686 0.65600002 2.46
-1.251086 0.65600002 2.46
-1.2346859 0.65365714 2.46
-1.2159431 0.65600002 2.46
-1.2073524 0.65443814 2.46
-1.1936855 0.65482861 2.46
-1.1831429 0.65600002 2.46
-1.166743 0.65600002 2.46
-1.356514 0.66537142 2.46
-1.3448 0.66255999 2.46
-1.333086 0.66068572 2.46
-1.323714 0.6630286 2.46
-1.316686 0.6630286 2.46
-1.307314 0.66068572 2.46
-1.2955999 0.66068572 2.46
-1.251086 0.66068572 2.46
-1.2346859 0.6630286 2.46
-1.222971 0.6630286 2.46
-1.2159431 0.6630286 2.46
-1.204229 0.6630286 2.46
-1.1957942 0.66255999 2.46
-1.185486 0.66068572 2.46
-1.1737715 0.6630286 2.46
-1.356514 0.67005712 2.46
-1.3448 0.67005712 2.46
-1.323714 0.67005712 2.46
-1.316686 0.67005712 2.46
-1.222971 0.67005712 2.46
-1.2159431 0.67005712 2.46
-1.2065716 0.6724 2.46
-1.1979811 0.67161906 2.46
-1.34284 0.64664012 2.4779999
-1.33104 0.64664012 2.4779999
-1.3050799 0.64664012 2.4779999
-1.26024 0.64664012 2.4779999
-1.25552 0.64664012 2.4779999
-1.36408 0.65608001 2.4779999
-1.3569999 0.65372002 2.4779999
-1.3452001 0.65372002 2.4779999
-1.3334 0.65372002 2.4779999
-1.3239601 0.65372002 2.4779999
-1.31452 0.65372002 2.4779999
-1.3050799 0.65372002 2.4779999
-1.298 0.65372002 2.4779999
-1.2618134 0.65450668 2.4780002
-1.2523735 0.65450668 2.4780002
-1.2413599 0.65135998 2.4779999
-1.23428 0.65372002 2.4779999
-1.22484 0.65608001 2.4779999
-1.21304 0.65608001 2.4779999
-1.20596 0.65372002 2.4779999
-1.1957333 0.65293336 2.4780002
-1.18708 0.65372002 2.4779999
-1.17764 0.65372002 2.4779999
-1.37588 0.66552001 2.4779999
-1.3664401 0.66315997 2.4779999
-1.357 0.66079998 2.4779999
-1.34992 0.66079998 2.4779999
-1.3216 0.66315997 2.4779999
-1.3137333 0.6623733 2.4780002
-1.3050799 0.66079998 2.4779999
-1.2948534 0.66394663 2.4780002
-1.2862 0.66552001 2.4779999
-1.2775466 0.66394663 2.4780002
-1.26732 0.66315997 2.4779999
-1.2508 0.66079998 2.4779999
-1.2350667 0.6623733 2.4780002
-1.18708 0.66315997 2.4779999
-1.1799999 0.66079998 2.4779999
-1.37588 0.67260003 2.4779999
-1.3216 0.67496008 2.4780002
-1.3145201 0.67496002 2.4779999
-1.30626 0.67377996 2.4779999
-1.29564 0.67496002 2.4779999
-1.286672 0.674016 2.4779999
-1.27676 0.67023998 2.4779999
-1.26968 0.67023998 2.4779999
-1.23664 0.67023998 2.4779999
-1.18944 0.67023998 2.4779999
-1.36448 0.64658278 2.4960001
-1.340709 0.64658278 2.4960001
-1.3335769 0.64658278 2.4960001
-1.3240685 0.64658278 2.4960001
-1.3145599 0.64420569 2.4960001
-1.2741489 0.64658278 2.4960001
-1.267017 0.64658278 2.4960001
-1.376366 0.65609139 2.4960001
-1.3668571 0.65133709 2.4960001
-1.359726 0.65133709 2.4960001
-1.345463 0.65133709 2.4960001
-1.3335769 0.65133709 2.4960001
-1.3240685 0.65133709 2.4960001
-1.3026741 0.65609139 2.4960001
-1.295543 0.65609139 2.4960001
-1.286034 0.65371424 2.4960001
-1.2757337 0.65450662 2.4960001
-1.2551315 0.65133709 2.4960001
-1.245623 0.65133709 2.4960001
-1.233737 0.65609139 2.4960001
-1.2242285 0.65609139 2.4960001
-1.193326 0.65133709 2.4960001
-1.1861939 0.65133709 2.4960001
-1.179063 0.65609139 2.4960001
-1.3858739 0.66322285 2.4960001
-1.3787431 0.6608457 2.4960001
-1.3050516 0.66322285 2.4960001
-1.295543 0.66322285 2.4960001
-1.2852416 0.66243047 2.4960001
-1.278903 0.6608457 2.4960001
-1.179063 0.6608457 2.4960001
-1.312183 0.67986292 2.4960001
-1.312183 0.68461722 2.4960001
-1.3408 0.64645708 2.5139999
-1.336012 0.64645708 2.5139999
-1.321646 0.64166862 2.5139999
-1.316857 0.64645708 2.5139999
-1.2953086 0.64645708 2.5139999
-1.283337 0.64406288 2.5139999
-1.2761545 0.64645708 2.5139999
-1.268971 0.64645708 2.5139999
-1.3838969 0.65603441 2.5139999
-1.314463 0.65364009 2.5139999
-1.304886 0.65364009 2.5139999
-1.2953086 0.65124577 2.5139999
-1.288126 0.65364009 2.5139999
-1.266577 0.65124577 2.5139999
-1.259394 0.65124577 2.5139999
-1.2462257 0.65483725 2.5139999
-1.2330575 0.65603441 2.5139999
-1.22348 0.65603441 2.5139999
-1.213903 0.65603441 2.5139999
-1.2043254 0.65364009 2.5139999
-1.1947484 0.65124577 2.5139999
-1.187566 0.65603441 2.5139999
-1.182777 0.66321719 2.5139999
-1.1763928 0.66401529 2.5139999
-1.1763928 0.67199624 2.5139999
-1.3528115 0.64626282 2.5320001
-1.3431655 0.6438514 2.5320001
-1.3359309 0.64626282 2.5320001
-1.3230708 0.64465523 2.5320001
-1.3142285 0.6438514 2.5320001
-1.3045825 0.64626282 2.5320001
-1.2957413 0.64304757 2.5320001
-1.2860954 0.64465523 2.5320001
-1.2756455 0.64626282 2.5320001
-1.393806 0.65590858 2.5320001
-1.388983 0.65590858 2.5320001
-1.374514 0.65590858 2.5320001
-1.36728 0.65590858 2.5320001
-1.3552229 0.65108567 2.5320001
-1.340754 0.65108567 2.5320001
-1.321463 0.65108567 2.5320001
-1.3142285 0.65108567 2.5320001
-1.297349 0.65108567 2.5320001
-1.273234 0.65108567 2.5320001
-1.2651963 0.65269327 2.5320001
-1.2563546 0.6534971 2.5320001
-1.2467085 0.65590858 2.5320001
-1.2370625 0.65590858 2.5320001
-1.225006 0.65590858 2.5320001
-1.2129486 0.6534971 2.5320001
-1.2033025 0.65108567 2.5320001
-1.1936575 0.65590858 2.5320001
-1.1864229 0.65590858 2.5320001
-1.403451 0.66555429 2.5320001
-1.398629 0.66073138 2.5320001
-1.191246 0.66073138 2.5320001
-1.1832078 0.66233897 2.5320001
-1.176777 0.66555429 2.5320001
-1.176777 0.67037708 2.5320001
-1.32652 0.63653529 2.5510001
-1.302225 0.63653529 2.5510001
-1.3637724 0.64463365 2.5510001
-1.3508151 0.64139432 2.5510001
-1.3435265 0.64625329 2.5510001
-1.3338085 0.6438238 2.5510001
-1.3240905 0.64139432 2.5510001
-1.3143725 0.6438238 2.5510001
-1.3046545 0.64139432 2.5510001
-1.2949365 0.6438238 2.5510001
-1.2852185 0.64625329 2.5510001
-1.2755005 0.64625329 2.5510001
-1.2657815 0.64625329 2.5510001
-1.384829 0.65597153 2.5510001
-1.3741387 0.65402788 2.5510004
-1.2755005 0.65111238 2.5510001
-1.2649717 0.65273213 2.5510001
-1.2568734 0.65435183 2.5510001
-1.2463455 0.65597153 2.5510001
-1.2366275 0.65597153 2.5510001
-1.2269095 0.65597153 2.5510001
-1.2171915 0.65111238 2.5510001
-1.2026145 0.65597153 2.5510001
-1.409124 0.6608305 2.5510001
-1.389688 0.6608305 2.5510001
-1.190467 0.6608305 2.5510001
-1.185608 0.66568959 2.5510001
-1.418842 0.67054862 2.5510001
-1.1807491 0.6729781 2.5510001
-1.17589 0.6729781 2.5510001
-1.307029 0.63638097 2.5699999
-1.3902479 0.64617151 2.5699999
-1.3829045 0.64372385 2.5699999
-1.3722986 0.64290798 2.5700002
-1.3641393 0.64290798 2.5700002
-1.3543494 0.64453977 2.5700002
-1.3437431 0.64372385 2.5699999
-1.3315049 0.64127618 2.5699999
-1.324162 0.64127618 2.5699999
-1.316819 0.64127618 2.5699999
-1.3037651 0.64290798 2.5700002
-1.2939748 0.64453977 2.5700002
-1.2858161 0.64453977 2.5700002
-1.2752094 0.64617151 2.5699999
-1.2654195 0.64617151 2.5699999
-1.258076 0.64617151 2.5699999
-1.3926954 0.65351439 2.5699999
-1.3829045 0.65106672 2.5699999
-1.2646036 0.65269852 2.5700002
-1.2556285 0.65351439 2.5699999
-1.2458385 0.65596199 2.5699999
-1.2360475 0.65596199 2.5699999
-1.2262576 0.65106672 2.5699999
-1.2164664 0.65596199 2.5699999
-1.209124 0.65596199 2.5699999
-1.204229 0.66085708 2.5699999
-1.1968855 0.66330475 2.5699999
-1.4245141 0.67064768 2.5699999
-1.1870955 0.67064768 2.5699999
-1.3117599 0.63615429 2.589
-1.361074 0.64601719 2.589
-1.3536775 0.64355147 2.589
-1.34628 0.6410858 2.589
-1.331486 0.6410858 2.589
-1.3240885 0.6410858 2.589
-1.3117599 0.6410858 2.589
-1.3051851 0.64272964 2.5890002
-1.293678 0.64272964 2.5890002
-1.2854594 0.64437342 2.5890002
-1.2747746 0.64601719 2.589
-1.262446 0.65094858 2.589
-1.2550485 0.65341425 2.589
-1.2451855 0.65587997 2.589
-1.2254601 0.65587997 2.589
-1.218063 0.65341425 2.589
-1.203269 0.66574287 2.589
-1.198337 0.67067432 2.589
