# .PCD v0.7 - Point Cloud Data file format
VERSION 0.7
FIELDS x y z
SIZE 4 4 4
TYPE F F F
COUNT 1 1 1
WIDTH 1598
HEIGHT 1
VIEWPOINT 0 0 0 1 0 0 0
POINTS 1598
DATA ascii
-1.0361825 0.67245424 1.863
-1.0231717 0.67186284 1.8630002
-1.0125258 0.67186284 1.8630002
-1.0032319 0.67372167 1.8630002
-0.99404359 0.67467219 1.863
-0.98472857 0.67422861 1.8630002
-0.97443771 0.67422849 1.8630002
-0.96521145 0.67422861 1.863
-0.95811433 0.67067999 1.863
-0.92262858 0.67245424 1.863
-0.91553152 0.67245424 1.863
-0.90843427 0.67067999 1.863
-1.075217 0.68132567 1.863
-1.0633886 0.68369144 1.8630002
-1.0553453 0.68558401 1.8630002
-1.0450544 0.6848743 1.863
-1.032634 0.68664861 1.863
-1.0255373 0.68664861 1.863
-1.0166655 0.68664861 1.863
-1.0024714 0.68132567 1.863
-0.99714851 0.68132567 1.863
-0.97230858 0.68132567 1.863
-0.96521151 0.68221283 1.863
-1.0166655 0.69729429 1.863
-0.96476787 0.69507641 1.863
-1.0231717 0.70734853 1.8630002
-0.96166289 0.70261711 1.863
-1.0344086 0.71503723 1.863
-1.0255375 0.71503723 1.863
-1.011343 0.71681148 1.863
-1.0060201 0.71681148 1.863
-0.99360001 0.71681148 1.863
-0.97585708 0.71503723 1.863
-0.96166289 0.71326292 1.863
-1.0352957 0.72302145 1.863
-1.021989 0.72035998 1.863
-1.011343 0.72035998 1.863
-1.0042455 0.72035998 1.863
-0.99218065 0.72319883 1.8630002
-0.97585708 0.72035998 1.863
-1.0521514 0.73277998 1.863
-1.0450544 0.73100573 1.863
-1.0344086 0.73100573 1.863
-1.061023 0.74697429 1.863
-1.0562915 0.74283427 1.8630002
-1.0740345 0.75347996 1.8630002
-1.07433 0.77447575 1.863
-1.0740345 0.78305143 1.8630002
-1.064571 0.78068572 1.863
-1.071669 0.79133141 1.863
-1.066937 0.79724574 1.8630002
-1.0663455 0.80375141 1.863
-1.032634 0.80375141 1.863
-1.0328259 0.65644193 1.873
-1.027474 0.65644193 1.873
-0.98644674 0.65644193 1.873
-0.9739601 0.65644193 1.873
-1.080989 0.66536099 1.873
-1.0738534 0.66714478 1.873
-1.0649345 0.66714478 1.873
-1.0560154 0.6659556 1.873
-1.0444207 0.66625285 1.873
-1.0346098 0.66000962 1.873
-1.0239067 0.66000962 1.873
-1.0155827 0.66476643 1.873
-1.0067823 0.66571778 1.873
-0.99417657 0.66476643 1.873
-0.98466301 0.6635772 1.873
-0.97440606 0.66313124 1.873
-0.96468431 0.66429073 1.873
-0.95701385 0.66625285 1.873
-0.94452721 0.66625285 1.873
-0.93471622 0.66536093 1.873
-0.92329979 0.66500425 1.873
-0.91449976 0.66476643 1.873
-0.90617532 0.66536105 1.873
-0.89761299 0.66286367 1.873
-1.0809891 0.67428005 1.873
-1.071475 0.67309088 1.873
-1.0649345 0.67428005 1.873
-1.0542315 0.67071241 1.873
-1.0458224 0.67478973 1.8730001
-1.0328259 0.67784768 1.873
-0.99536568 0.67427999 1.873
-0.98287916 0.6724962 1.873
-0.9739601 0.67071241 1.873
-0.96444649 0.67309088 1.873
-0.95567602 0.67472601 1.873
-0.94423002 0.67368549 1.873
-0.93522596 0.67529941 1.8730001
-0.92401338 0.67428005 1.873
-0.91545105 0.67428011 1.873
-0.90617543 0.67428005 1.873
-0.89725626 0.67428005 1.873
-1.080989 0.68141532 1.873
-1.0720695 0.68141532 1.873
-1.06434 0.68260449 1.873
-1.052448 0.68319911 1.873
-1.0448667 0.68453693 1.873
-1.038177 0.6849829 1.873
-1.0149879 0.68855047 1.873
-1.0060687 0.68855047 1.873
-0.9953658 0.68676674 1.873
-0.98421705 0.68542886 1.873
-0.97574383 0.68855047 1.873
-0.96414918 0.68587476 1.873
-0.95612186 0.6849829 1.873
-0.9418515 0.6849829 1.873
-0.93471622 0.68319911 1.873
-0.92401344 0.68498296 1.873
-0.91473752 0.68426937 1.873
-0.90668499 0.6839636 1.8730001
-0.89903998 0.68319911 1.873
-1.052448 0.69390196 1.873
-1.0462046 0.69301009 1.873
-1.0227177 0.69687498 1.873
-1.0146313 0.69497222 1.873
-1.0060687 0.69568574 1.873
-0.99655497 0.69628036 1.873
-0.98466301 0.6956858 1.873
-0.9753871 0.69425875 1.873
-0.96414918 0.69479388 1.873
-0.95656788 0.69523978 1.873
-0.94541907 0.69925338 1.873
-1.0453124 0.70638871 1.873
-1.0367502 0.70710224 1.873
-1.0221227 0.70638865 1.873
-1.0146312 0.70567513 1.873
-1.0072578 0.70698327 1.873
-0.9953658 0.7081725 1.873
-0.98466301 0.70638859 1.873
-0.974406 0.70683455 1.873
-0.96414918 0.70728052 1.873
-0.95612198 0.70638859 1.873
-0.94684619 0.70638865 1.873
-0.93471628 0.70995623 1.873
-1.0230148 0.71619952 1.873
-1.0143933 0.7147131 1.873
-1.0060687 0.71530765 1.873
-0.9953658 0.71530765 1.873
-0.98537648 0.71495092 1.873
-0.9739601 0.71530765 1.873
-0.96444649 0.7147131 1.873
-0.95612204 0.71530765 1.873
-0.94779754 0.71590227 1.873
-0.93114859 0.71709138 1.873
-1.0352044 0.72482127 1.873
-1.0228875 0.72473639 1.8730001
-1.0149879 0.72779429 1.873
-1.0060687 0.72511858 1.873
-0.99465227 0.72422671 1.873
-0.98568231 0.72473639 1.8730001
-0.97396016 0.72422677 1.873
-0.9650411 0.72422671 1.873
-0.95663166 0.72320735 1.8730001
-0.94720292 0.72244287 1.873
-0.9338243 0.72244287 1.873
-0.91331053 0.72422671 1.873
-0.90662122 0.72422671 1.873
-0.89903998 0.72065908 1.873
-1.0542315 0.7384972 1.873
-1.0453126 0.7384972 1.873
-1.0346098 0.73441994 1.8730001
-1.022123 0.73136193 1.873
-1.0149879 0.73136193 1.873
-1.0048796 0.73374033 1.873
-0.9953658 0.73350257 1.873
-0.98555481 0.73225385 1.873
-0.97574383 0.73136193 1.873
-0.96504104 0.73136193 1.873
-0.95968962 0.73136193 1.873
-0.91545105 0.73421603 1.873
-0.90662122 0.73537552 1.873
-0.89903998 0.73671341 1.873
-1.0555694 0.74563241 1.873
-1.0457586 0.74563229 1.873
-1.0353233 0.74705946 1.873
-0.91331053 0.74563241 1.873
-0.90662122 0.74607831 1.873
-0.89903998 0.74563235 1.873
-1.0731398 0.7584759 1.873
-1.0645778 0.75704879 1.873
-1.0567287 0.75419474 1.873
-1.0476911 0.75395697 1.873
-1.0346098 0.75811911 1.873
-1.0256906 0.75990289 1.873
-0.90403473 0.75562173 1.873
-0.89903998 0.75276768 1.873
-1.080989 0.76525438 1.873
-1.0738535 0.76489758 1.873
-1.0649345 0.76347047 1.873
-1.052448 0.76525438 1.873
-1.0445993 0.76489753 1.873
-1.0346098 0.76525438 1.873
-1.0239069 0.76347047 1.873
-1.080989 0.77060568 1.873
-1.074448 0.77476799 1.873
-1.066718 0.77417344 1.873
-1.0555058 0.77417338 1.8730001
-1.0444207 0.7750653 1.873
-1.0357988 0.77536261 1.873
-1.0732588 0.78487629 1.873
-1.066718 0.78487635 1.873
-1.0595829 0.78487635 1.873
-1.0444207 0.78666019 1.873
-1.0352043 0.7854709 1.873
-1.027474 0.78487623 1.873
-1.0726643 0.7943899 1.873
-1.0652913 0.79629266 1.873
-1.0560154 0.79557908 1.873
-1.0453126 0.79557908 1.873
-1.0346096 0.79557908 1.873
-1.0265822 0.79557908 1.873
-1.016772 0.79557908 1.873
-1.0649345 0.80628198 1.873
-1.0560154 0.80628198 1.873
-1.0453126 0.80628198 1.873
-1.0335906 0.80577236 1.8730001
-1.0256906 0.80628198 1.873
-1.076 0.62587345 1.883
-1.076 0.63484001 1.883
-1.0365469 0.64918667 1.883
-0.90384007 0.64918673 1.8830001
-1.08676 0.6581533 1.883
-1.079587 0.6581533 1.883
-1.0526865 0.65994668 1.883
-1.0437201 0.65695781 1.8830001
-1.0347536 0.65456665 1.883
-1.026504 0.658512 1.883
-1.018613 0.65994668 1.883
-1.0042667 0.65994668 1.8830001
-0.99470234 0.65636003 1.8830001
-0.98633337 0.65725666 1.883
-0.97557342 0.65755558 1.8830001
-0.96840012 0.65994668 1.883
-0.95764011 0.65994668 1.883
-0.93791342 0.65994668 1.883
-0.92446339 0.65904999 1.883
-0.91388273 0.658512 1.883
-0.90384007 0.65635997 1.883
-1.0843687 0.66472888 1.8830001
-1.0768967 0.66622329 1.883
-1.06524 0.66711998 1.883
-1.0537626 0.6656853 1.883
-1.047307 0.66353327 1.883
-1.0222 0.66353327 1.883
-1.0150267 0.66353333 1.8830001
-1.004984 0.66496795 1.883
-0.97198671 0.66353327 1.883
-0.96242237 0.66472882 1.8830001
-0.95477074 0.6656853 1.883
-0.94508672 0.66353327 1.883
-0.93612003 0.66353333 1.8830001
-0.92536008 0.66353333 1.8830001
-0.91460007 0.66353333 1.8830001
-0.90742677 0.66353327 1.883
-0.89547122 0.66592443 1.8830001
-0.96481341 0.6742934 1.883
-0.95226002 0.67787999 1.883
-0.92177337 0.67070669 1.883
-0.90025342 0.67070669 1.883
-0.89523214 0.67501074 1.883
-0.95261872 0.68577069 1.883
-0.94687998 0.68505329 1.883
-0.90025342 0.68684661 1.883
-0.89577007 0.68415666 1.883
-1.00068 0.69581342 1.883
-0.99709338 0.69581342 1.883
-0.95226002 0.69581342 1.8830001
-0.94508672 0.69581342 1.8830001
-0.93656838 0.6962617 1.8830001
-0.92484772 0.69683826 1.8830001
-0.91408765 0.6968382 1.8830001
-0.90384007 0.69581348 1.883
-1.0222 0.70298672 1.883
-1.0042667 0.70657343 1.8830001
-0.99709338 0.7047801 1.883
-0.95584667 0.70298672 1.883
-0.94508672 0.7047801 1.883
-0.93612003 0.7047801 1.8830001
-0.92715335 0.7047801 1.883
-0.91460007 0.7047801 1.8830001
-0.90384007 0.7047801 1.8830001
-1.0275798 0.71374673 1.883
-1.01144 0.71016002 1.883
-1.007853 0.71016002 1.883
-0.95226002 0.71374667 1.883
-0.94508672 0.71374673 1.8830001
-0.93567169 0.71374667 1.8830001
-0.92715335 0.71464336 1.883
-0.91460007 0.71374673 1.883
-0.90384007 0.71374673 1.883
-0.89666671 0.71554005 1.883
-1.0222 0.72092003 1.883
-1.015027 0.72809339 1.883
-0.94544536 0.72378939 1.883
-0.93612003 0.72540337 1.883
-0.92536002 0.72450674 1.883
-0.91460007 0.72092003 1.8830001
-0.90294343 0.72181672 1.883
-0.89547122 0.72211564 1.8830001
-1.0329601 0.73706007 1.883
-1.0257868 0.73885339 1.8830001
-1.01682 0.73885339 1.883
-0.98633337 0.73885339 1.8830001
-0.97557342 0.7379567 1.883
-0.96481347 0.73526669 1.883
-0.95764011 0.73167998 1.883
-0.94329339 0.73167998 1.883
-0.93396807 0.73526669 1.883
-0.92638481 0.73475432 1.8830001
-0.90384007 0.7334733 1.883
-1.04372 0.7472223 1.8830001
-1.0343949 0.74530935 1.883
-1.0257866 0.74557835 1.8830001
-1.0150267 0.74602669 1.883
-1.0042666 0.74542892 1.8830001
-0.99530005 0.74423331 1.883
-0.98543668 0.74333668 1.883
-0.97916001 0.74243999 1.883
-0.93253338 0.74243999 1.883
-0.92536008 0.74602669 1.8830001
-0.91818672 0.74423337 1.883
-0.90742677 0.74602669 1.883
-1.0455135 0.7567867 1.883
-1.0347536 0.75499344 1.883
-1.0266833 0.75409675 1.883
-0.9235667 0.75499338 1.883
-0.91699117 0.75559115 1.8830001
-0.90025342 0.75499344 1.883
-0.89666671 0.7567867 1.883
-1.0634465 0.76575339 1.883
-1.05448 0.7625255 1.883
-1.0446167 0.76127011 1.883
-1.0341557 0.76276457 1.8830001
-1.0250695 0.76467741 1.883
-1.0150268 0.76575345 1.8830001
-1.00606 0.76575339 1.883
-0.92491174 0.76351178 1.8830001
-0.91504836 0.76440847 1.8830001
-0.90312272 0.76324272 1.883
-0.89666671 0.76396012 1.883
-1.0774348 0.77472013 1.883
-1.0664358 0.77352452 1.8830001
-1.0532844 0.77352452 1.8830001
-1.0428233 0.77651346 1.883
-1.0343949 0.77543741 1.883
-1.0257868 0.77472019 1.883
-1.0171787 0.77543736 1.883
-1.0042667 0.77574486 1.8830001
-0.92177337 0.77292675 1.883
-0.91460007 0.77472007 1.883
-0.90563339 0.77472007 1.8830001
-1.0652401 0.78548002 1.8830001
-1.0540316 0.78592837 1.8830001
-1.0425243 0.78548002 1.8830001
-1.0341557 0.78428453 1.8830001
-1.0257868 0.78548002 1.883
-1.0160515 0.78496766 1.8830001
-1.00606 0.7836867 1.883
-0.91191012 0.78637671 1.883
-0.90653008 0.78548002 1.883
-1.0664357 0.79384893 1.8830001
-1.058067 0.79265338 1.883
-1.040133 0.79265338 1.883
-1.0329601 0.79265338 1.883
-1.0257868 0.79521531 1.8830001
-1.01682 0.79982668 1.883
-1.004267 0.79982668 1.883
-0.91101348 0.79624003 1.8830001
-1.0257868 0.80431002 1.883
-1.0159233 0.80431002 1.883
-1.0042667 0.80431002 1.883
-1.025787 0.81238008 1.883
-0.96684188 0.56278861 1.8940001
-1.093109 0.61690289 1.8940001
-1.0840895 0.61690289 1.8940001
-1.093109 0.62411809 1.8940001
-1.0849915 0.62502003 1.8940001
-1.033583 0.63854861 1.8940001
-1.0444059 0.64937139 1.8940001
-1.0371904 0.64937139 1.8940001
-1.02276 0.64937139 1.8940001
-0.96323431 0.64937139 1.8940001
-0.91272759 0.64937139 1.8940001
-0.90731621 0.64937139 1.8940001
-1.093109 0.65658659 1.8940001
-1.089501 0.65658659 1.8940001
-1.062444 0.65478283 1.8940001
-1.0552285 0.65478277 1.8940001
-1.0486147 0.65418154 1.8940001
-1.0365894 0.6541816 1.8940001
-1.024564 0.65478277 1.8940001
-1.006526 0.65658659 1.8940001
-0.99389911 0.65658659 1.8940001
-0.98397815 0.65568471 1.8940001
-0.9253543 0.65658659 1.8940001
-0.91753787 0.65538406 1.8940001
-0.90190482 0.65658659 1.8940001
-1.0858935 0.66380191 1.8940001
-1.0750704 0.66560566 1.8940001
-1.0652784 0.66328651 1.8940002
-1.057032 0.66019428 1.8940001
-1.0236621 0.66109622 1.8940001
-1.014643 0.66109622 1.8940001
-1.006526 0.66019428 1.8940001
-0.9740572 0.66139686 1.8940001
-0.96503806 0.66199809 1.8940001
-0.95662034 0.66320068 1.8940001
-0.94519627 0.66139686 1.8940001
-0.93437332 0.66139686 1.8940001
-0.92355049 0.66019428 1.8940001
-0.90190482 0.66019428 1.8940001
-0.89829719 0.66019428 1.8940001
-0.89649332 0.67642856 1.8940001
-0.89559144 0.68634951 1.8940001
-0.90190482 0.69807434 1.8940001
-0.89829719 0.69627047 1.8940001
-0.92715812 0.7070933 1.8940001
-0.90190482 0.70528948 1.8940001
-0.89829719 0.70528948 1.8940001
-0.93076569 0.71611238 1.8940001
-0.92715812 0.71430862 1.8940001
-0.90190482 0.7125048 1.8940001
-0.89739525 0.7152105 1.8940001
-0.93437326 0.72332764 1.8940001
-0.89649332 0.72152382 1.8940001
-0.96503806 0.73956192 1.8940001
-0.9560191 0.73595428 1.8940001
-0.94519621 0.73865998 1.8940001
-0.91272759 0.73234671 1.8940001
-0.90671492 0.73475182 1.8940001
-0.9812724 0.74677718 1.8940001
-0.9740572 0.7449733 1.8940001
-0.96684188 0.74316949 1.8940001
-0.9433924 0.7449733 1.8940001
-1.0317791 0.75399238 1.8940001
-1.02276 0.75760001 1.8940001
-1.017349 0.75760001 1.8940001
-0.99389911 0.75038481 1.8940001
-0.98307621 0.75038481 1.8940001
-0.94158858 0.75579619 1.8940001
-0.93653792 0.75471395 1.8940001
-1.0317791 0.76301146 1.8940001
-1.0252856 0.76337224 1.8940001
-1.015545 0.76481527 1.8940001
-1.002918 0.76842278 1.8940001
-0.94158858 0.76481521 1.8940001
-0.93707901 0.76391333 1.8940001
-1.020956 0.7756381 1.8940001
-1.015545 0.7756381 1.8940001
-1.0053234 0.77323306 1.8940001
-0.99931049 0.77203047 1.8940001
-0.93196821 0.7756381 1.8940001
-0.90479088 0.77635962 1.8940001
-0.93076569 0.78465712 1.8940001
-0.92595565 0.78525841 1.8940001
-0.91994292 0.78646088 1.8940001
-0.90671492 0.78525841 1.8940001
-1.02276 0.79728383 1.8940001
-1.013741 0.79728383 1.8940001
-0.93076569 0.79006863 1.8940001
-0.92535436 0.79367626 1.8940001
-0.91753787 0.79487884 1.8940001
-0.90641433 0.79277432 1.8940001
-1.02276 0.80089152 1.8940001
-1.0144627 0.80233449 1.8940001
-1.0041207 0.80570161 1.8940001
-0.99931049 0.80630285 1.8940001
-0.92535436 0.80449909 1.8940001
-0.91633528 0.80501455 1.8940002
-0.90912002 0.80269527 1.8940001
-1.0257667 0.81532204 1.8940001
-1.014192 0.81577289 1.8940001
-1.006526 0.81532204 1.8940001
-0.99931049 0.8171258 1.8940001
-0.96503806 0.81351817 1.8940001
-0.9253543 0.81351817 1.8940001
-0.91633528 0.81351823 1.8940001
-0.97376007 0.56938672 1.904
-0.96832001 0.56757337 1.904
-1.0930774 0.58461869 1.9040002
-1.085824 0.58534402 1.9040002
-1.0753064 0.58570671 1.904
-1.0686581 0.58510232 1.904
-1.0934401 0.59477341 1.9040002
-1.0843734 0.59477341 1.9040002
-1.0753064 0.59477341 1.9040002
-1.069867 0.59477341 1.904
-0.96288007 0.5965867 1.904
-0.95744002 0.5984 1.904
-1.0934401 0.60565329 1.9040002
-1.0843734 0.60565329 1.9040002
-1.0771201 0.60565329 1.904
-1.062613 0.60565329 1.904
-0.97194672 0.60565329 1.904
-0.96378672 0.60565329 1.904
-1.0934401 0.61471993 1.904
-1.0850986 0.61435729 1.9040002
-1.0771199 0.61471993 1.904
-1.067449 0.61532438 1.904
-1.0938027 0.62451202 1.9040002
-1.0831645 0.62257779 1.904
-1.0756692 0.62306136 1.9040002
-1.0672764 0.62430477 1.9040003
-1.0336 0.62015998 1.904
-1.0281601 0.62378669 1.904
-1.0943468 0.63557333 1.904
-1.0843732 0.63466668 1.9040002
-1.0753064 0.63466668 1.9040002
-1.0674491 0.63345778 1.9040002
-1.0426664 0.63829333 1.904
-1.0354135 0.63285333 1.904
-1.091627 0.64554667 1.904
-1.0819558 0.64675558 1.904
-1.0749438 0.64554667 1.9040002
-1.0666933 0.64554667 1.9040002
-1.0553601 0.646272 1.9040002
-1.0449333 0.64600003 1.9040002
-0.9937067 0.64917332 1.904
-0.98524445 0.64796442 1.904
-0.97376007 0.64917332 1.904
-0.96832001 0.64917332 1.904
-0.91573334 0.64917332 1.904
-1.091627 0.65461338 1.904
-1.0836481 0.65425074 1.9040002
-1.074702 0.65521783 1.904
-1.0662401 0.65280002 1.904
-1.0571735 0.65280002 1.904
-1.037227 0.65461338 1.904
-1.02272 0.65461338 1.904
-1.0045871 0.65461338 1.904
-0.98464 0.65461338 1.904
-0.97484809 0.65497607 1.9040002
-0.9639681 0.65497607 1.9040002
-0.93386662 0.65642673 1.904
-0.92480004 0.65521783 1.904
-1.091627 0.66005337 1.904
-1.0843734 0.66186666 1.9040002
-1.0759109 0.66126227 1.904
-1.037227 0.66005337 1.904
-1.02272 0.66005337 1.904
-1.0172801 0.66005337 1.904
-1.008213 0.66368002 1.904
-0.98282671 0.66005337 1.904
-0.97557342 0.66186672 1.904
-0.96469343 0.66005337 1.904
-0.95381337 0.66186666 1.904
-0.94474667 0.66186666 1.904
-0.93749332 0.66005337 1.904
-0.90303999 0.66005337 1.904
-0.89941329 0.66005337 1.904
-0.89941329 0.69813335 1.904
-0.89941329 0.70538664 1.904
-0.89941329 0.71082669 1.904
-0.90666658 0.73802668 1.904
-0.96469343 0.74467558 1.904
-0.95381337 0.74709332 1.904
-0.91029328 0.74709332 1.904
-1.015467 0.75797331 1.904
-1.0045865 0.75797331 1.904
-0.99370658 0.75797331 1.904
-0.98403561 0.75676441 1.904
-0.97738671 0.75072002 1.904
-0.95200008 0.75434673 1.9040002
-0.94656003 0.75434673 1.904
-1.0245335 0.76522672 1.904
-1.0150135 0.76477337 1.9040002
-1.0060372 0.76667738 1.9040002
-0.99491549 0.76764458 1.904
-0.98464 0.76885343 1.904
-0.96288007 0.76885343 1.904
-0.95336002 0.76568007 1.9040002
-1.01184 0.77248001 1.904
-1.0033779 0.77671117 1.9040002
-0.99515736 0.7768321 1.9040002
-0.97194672 0.77610672 1.904
-0.96469343 0.77248001 1.904
-0.95381343 0.77248001 1.904
-0.94414222 0.77731562 1.904
-0.93930668 0.77973342 1.904
-0.91029328 0.77610672 1.904
-1.02272 0.7851733 1.904
-1.0045867 0.7851733 1.9040002
-0.99552 0.7851733 1.904
-0.97194672 0.78336 1.904
-0.94293332 0.78336 1.904
-0.93930668 0.7851733 1.904
-1.02272 0.79605329 1.904
-1.01456 0.79514664 1.904
-1.008213 0.79061341 1.904
-0.99461329 0.79333335 1.904
-0.97678232 0.7954489 1.904
-0.93840003 0.79514664 1.904
-0.91029328 0.79786658 1.904
-0.90666658 0.79786658 1.904
-1.01184 0.8033067 1.904
-1.0040686 0.80408388 1.9040003
-0.9937067 0.80511999 1.9040002
-0.98464 0.80511999 1.9040002
-0.97660959 0.80563813 1.9040003
-0.96650672 0.8087467 1.904
-0.93713063 0.80439466 1.9040002
-0.91029328 0.80511999 1.904
-0.90666658 0.8033067 1.904
-1.026347 0.81962669 1.904
-1.0039822 0.8166045 1.9040002
-0.9937067 0.81599998 1.9040002
-0.98464 0.81599998 1.9040002
-0.97660959 0.81548196 1.9040003
-0.9639681 0.81672537 1.9040002
-0.95381337 0.81781334 1.904
-0.94293332 0.81599998 1.904
-0.93568003 0.81599998 1.904
-0.91210663 0.81599998 1.9040002
-1.026347 0.82325327 1.904
-1.0045865 0.82325327 1.904
-0.9937067 0.82325333 1.904
-1.032276 0.56902862 1.915
-1.0268049 0.56538099 1.915
-0.98120952 0.56902862 1.915
-0.9702667 0.56902862 1.915
-0.96479523 0.56902862 1.915
-1.101581 0.57997137 1.915
-1.0942857 0.57997143 1.915
-1.0851669 0.57997137 1.915
-1.0760477 0.57997143 1.915
-1.065105 0.57997137 1.915
-1.043219 0.57632381 1.915
-1.0359237 0.57450002 1.915
-1.0286289 0.57449996 1.915
-0.98424929 0.57693172 1.915
-0.97339332 0.57736599 1.9150001
-0.9654032 0.57753968 1.915
-0.95932382 0.57997137 1.915
-1.101581 0.58361912 1.915
-1.090638 0.5854429 1.915
-1.0857749 0.58483499 1.915
-1.0760477 0.58361912 1.915
-1.0651047 0.5854429 1.915
-1.0578099 0.58361912 1.915
-1.043219 0.58726668 1.915
-0.98120952 0.5854429 1.915
-0.97391433 0.5854429 1.915
-0.96479523 0.5854429 1.915
-0.95810795 0.58483499 1.915
-1.0724 0.59456193 1.915
-1.0651046 0.59456187 1.9150001
-1.054162 0.59501791 1.915
-1.045043 0.59456193 1.915
-1.0371397 0.59699368 1.915
-0.98242539 0.59577787 1.915
-0.97437024 0.59410596 1.915
-0.96443051 0.59383243 1.915
-0.95713532 0.596021 1.915
-1.0755266 0.606547 1.9150001
-1.0646487 0.60504884 1.915
-1.054162 0.60550481 1.9150001
-1.045043 0.60550475 1.915
-1.0359236 0.60550475 1.9150001
-1.026197 0.60793656 1.915
-1.003095 0.60915238 1.915
-0.99488813 0.60732853 1.915
-0.98440123 0.60550475 1.915
-0.97537339 0.60477531 1.915
-0.96418732 0.60672069 1.915
-0.95932382 0.60368097 1.915
-1.0767773 0.61425906 1.915
-1.0651048 0.61462379 1.915
-1.054162 0.6146239 1.915
-1.045043 0.61462384 1.915
-1.0359237 0.6146239 1.915
-1.024981 0.61462384 1.915
-1.017686 0.61462379 1.915
-1.003095 0.61462379 1.915
-0.99580002 0.6128 1.915
-0.98412764 0.61425906 1.915
-0.97464389 0.61498857 1.915
-0.96297139 0.61462379 1.915
-1.086991 0.6219191 1.915
-1.079695 0.62009531 1.915
-1.0651046 0.62374288 1.9150001
-1.054162 0.62374288 1.9150001
-1.045043 0.62374294 1.915
-1.0359236 0.62228388 1.915
-1.024981 0.62374288 1.9150001
-1.017686 0.62374294 1.915
-0.98394525 0.62374294 1.915
-0.97756207 0.62374294 1.915
-1.090638 0.63103813 1.915
-1.086991 0.63468575 1.915
-1.079695 0.63103813 1.915
-1.0640626 0.63520688 1.9150001
-1.054162 0.63468581 1.9150001
-1.0454078 0.63395625 1.915
-1.0365317 0.63529372 1.915
-1.0260233 0.63416469 1.9150001
-1.017686 0.63103813 1.915
-0.98440123 0.63514173 1.915
-0.97537345 0.63468575 1.915
-0.96661907 0.63286197 1.915
-1.103405 0.64562857 1.915
-1.0918541 0.64806044 1.915
-1.085775 0.64684451 1.915
-1.0724 0.64198089 1.915
-1.0645837 0.64562863 1.9150001
-1.0565939 0.6444127 1.915
-1.043219 0.64562857 1.915
-1.0359237 0.64380473 1.915
-1.0268049 0.64562857 1.915
-1.0122144 0.64654052 1.915
-1.0049191 0.64562863 1.915
-0.99580002 0.64623654 1.915
-0.9848572 0.64608455 1.915
-0.9751302 0.64684451 1.915
-0.96661907 0.64927632 1.915
-0.92467147 0.64927632 1.915
-0.91555238 0.64927632 1.915
-1.103405 0.65474761 1.915
-1.094286 0.65292382 1.915
-1.083343 0.65657139 1.915
-1.043219 0.65292382 1.915
-1.0359235 0.65474761 1.915
-1.024981 0.65474761 1.915
-1.0140382 0.65474761 1.915
-1.005527 0.65535557 1.915
-0.99823177 0.65535557 1.915
-0.98607302 0.65535557 1.915
-0.9702667 0.65292382 1.915
-0.96479523 0.65474761 1.915
-0.95567626 0.65657139 1.915
-0.94382143 0.6556595 1.915
-0.93379056 0.65474761 1.915
-0.92649531 0.65292382 1.915
-0.91372859 0.65474761 1.915
-1.103405 0.66021907 1.915
-1.094286 0.66021907 1.915
-1.023157 0.66021907 1.915
-1.015254 0.66143495 1.915
-1.0049191 0.66021907 1.915
-0.9976238 0.66021907 1.915
-0.97756201 0.6638667 1.915
-0.96297139 0.66204286 1.915
-0.9556762 0.66021907 1.915
-0.94716519 0.66143495 1.915
-0.91190481 0.66021907 1.915
-0.90096188 0.6638667 1.915
-0.91190481 0.67116189 1.915
-0.90096188 0.68757617 1.915
-0.90096188 0.69487143 1.915
-0.90096188 0.70034289 1.915
-0.90460962 0.71858102 1.915
-0.90460962 0.73317152 1.915
-0.96297139 0.74776191 1.915
-0.91190481 0.74776191 1.915
-0.98303336 0.75870478 1.915
-0.97339326 0.7560994 1.9150001
-0.96479523 0.7550571 1.915
-0.91433656 0.75505722 1.915
-1.0122147 0.76508814 1.915
-1.0045543 0.76672953 1.915
-0.99519205 0.76660794 1.915
-0.98440123 0.76645595 1.915
-0.97391427 0.76600003 1.9150001
-0.96516001 0.76527053 1.915
-0.91555238 0.76235241 1.915
-1.003095 0.77694291 1.915
-0.9945842 0.77572703 1.915
-0.9841277 0.77548385 1.915
-0.97573817 0.77329522 1.915
-0.99397624 0.7842381 1.915
-0.98485714 0.78423816 1.9150001
-0.97287226 0.78371704 1.9150001
-0.96479523 0.7842381 1.915
-0.95613217 0.78469402 1.915
-0.91190481 0.78059047 1.915
-1.0116067 0.79761279 1.915
-1.005527 0.79761279 1.915
-0.99397624 0.79518098 1.915
-0.98531306 0.79518098 1.915
-0.97391427 0.79518104 1.9150001
-0.96479523 0.79518104 1.915
-0.9556762 0.79153341 1.915
-0.94838107 0.79518104 1.915
-0.91190481 0.79335719 1.915
-0.90825719 0.79335719 1.915
-1.0140383 0.80247629 1.915
-1.0049191 0.80247623 1.915
-0.99397624 0.80247623 1.915
-0.98850483 0.80247623 1.915
-0.97391438 0.80612391 1.9150001
-0.96516001 0.80539435 1.915
-0.94838107 0.80612385 1.915
-0.90825719 0.80247623 1.915
-0.9702667 0.81706673 1.915
-0.96479523 0.81524289 1.915
-0.95567626 0.81524289 1.915
-0.94594926 0.81463492 1.915
-0.91190481 0.81341898 1.915
-0.90825719 0.81341898 1.915
-0.96297139 0.82253814 1.915
-0.95385236 0.82253814 1.915
-0.94473338 0.82253814 1.915
-0.91190481 0.82253814 1.915
-0.90825719 0.82253814 1.915
-1.0248336 0.56650001 1.925
-1.0174999 0.56650001 1.925
-0.98450005 0.56833333 1.925
-0.97350001 0.56833333 1.925
-0.96433342 0.56833333 1.925
-0.9478333 0.56833333 1.925
-1.103667 0.57933342 1.925
-1.0963334 0.57933342 1.925
-1.0853333 0.57933342 1.925
-1.0743333 0.57933342 1.925
-1.067 0.57933342 1.925
-1.0550832 0.57841676 1.925
-1.045 0.57383335 1.925
-1.0312498 0.57475007 1.925
-1.0248336 0.57566679 1.9250001
-1.016125 0.57612503 1.9250001
-1.0046668 0.57566673 1.9250001
-0.99586678 0.57493341 1.9250001
-0.99000001 0.57200003 1.925
-0.97166669 0.57933342 1.925
-0.96387506 0.57612503 1.9250001
-0.95516676 0.57566673 1.9250001
-0.9478333 0.57566673 1.9250001
-1.074333 0.583 1.925
-1.0651665 0.583 1.925
-1.056 0.58483326 1.9250001
-1.045 0.58483326 1.9250001
-1.0347335 0.58446664 1.9250001
-1.0248334 0.583 1.925
-1.0156665 0.58483326 1.925
-1.0046667 0.58483326 1.9250001
-0.99550015 0.58483326 1.925
-0.99000001 0.58666658 1.925
-0.96066672 0.583 1.925
-0.9551667 0.58483326 1.925
-0.94673342 0.58519995 1.9250001
-0.9386667 0.58666658 1.925
-1.063333 0.59033328 1.925
-1.0569167 0.59124994 1.925
-1.0435332 0.59326667 1.9250001
-1.0354668 0.59546673 1.9250001
-1.0248334 0.59766668 1.925
-1.0156666 0.59445834 1.9250001
-1.0046668 0.59399998 1.9250001
-0.99550021 0.59399998 1.9250001
-0.98908335 0.59491664 1.925
-0.96066678 0.59399998 1.925
-0.95516676 0.59399998 1.9250001
-0.94599998 0.59399998 1.9250001
-0.93500012 0.59400004 1.9250001
-0.92766672 0.5958333 1.925
-1.0327777 0.60377783 1.9250001
-1.0248334 0.60500002 1.9250001
-1.0156666 0.60500002 1.9250001
-1.0046669 0.60500008 1.9250001
-0.99550015 0.60500002 1.925
-0.96066672 0.60683334 1.925
-0.9551667 0.60500002 1.925
-0.9478333 0.60133338 1.925
-0.93622231 0.60255563 1.925
-1.030333 0.61233342 1.925
-1.023 0.61233342 1.925
-1.0156666 0.61600006 1.9250001
-1.0022224 0.6184445 1.925
-0.99550009 0.6196667 1.925
-0.97166669 0.61783338 1.925
-0.96433342 0.61233342 1.925
-1.023 0.62699997 1.925
-1.0156667 0.62516659 1.9250001
-1.0046668 0.62516665 1.9250001
-0.99550015 0.62516665 1.925
-0.98633337 0.62333328 1.925
-0.97533339 0.62516659 1.9250001
-0.96799999 0.62516665 1.925
-1.037667 0.63800001 1.925
-1.0248334 0.63800001 1.925
-1.0156666 0.63433337 1.9250001
-1.0046668 0.63433337 1.9250001
-0.99586678 0.63360006 1.9250001
-0.98633337 0.63066667 1.925
-0.97606671 0.63213342 1.9250001
-0.96485722 0.63538104 1.9250002
-0.9551667 0.63616669 1.925
-0.94599998 0.63616669 1.9250001
-0.93573344 0.63653338 1.9250001
-0.92766672 0.63800001 1.925
-1.0248336 0.64533335 1.9250001
-1.0164 0.64386666 1.9250001
-1.0039334 0.64313334 1.9250001
-0.99733341 0.64166671 1.925
-0.99000001 0.64533329 1.925
-0.97487503 0.64487499 1.9250001
-0.96433342 0.64533329 1.9250001
-0.95516676 0.64533335 1.9250001
-0.94599998 0.64533329 1.9250001
-0.93500012 0.64533335 1.9250001
-0.92473334 0.64606661 1.9250001
-0.91483331 0.64899999 1.925
-0.90749991 0.64899999 1.925
-1.0431664 0.65450001 1.925
-1.037667 0.65266669 1.925
-1.0248334 0.65450001 1.925
-0.96433342 0.65450001 1.9250001
-0.9551667 0.65450001 1.925
-0.94691664 0.65358335 1.925
-0.93683338 0.65266669 1.925
-0.92400002 0.65266669 1.925
-0.91483331 0.65450001 1.925
-0.90749991 0.65450001 1.925
-0.91299999 0.66183341 1.925
-0.9081111 0.66122234 1.925
-0.91299999 0.67833328 1.925
-0.90933329 0.6746667 1.925
-0.90566659 0.68566668 1.925
-0.90566659 0.7076667 1.925
-0.90566659 0.71683335 1.925
-0.90933329 0.72600001 1.925
-0.9044444 0.7357778 1.925
-0.91299999 0.74433339 1.925
-0.90933335 0.74433339 1.925
-0.91422224 0.75533342 1.925
-0.90933329 0.7535001 1.925
-0.91483331 0.76450002 1.925
-0.91666669 0.77366662 1.925
-0.91299999 0.78833342 1.925
-0.9625001 0.79933339 1.925
-0.95700002 0.79933339 1.925
-0.91299999 0.79200011 1.925
-0.96250004 0.80483329 1.925
-0.95700002 0.80483329 1.925
-0.91299999 0.80299997 1.925
-0.90933329 0.80299997 1.925
-0.9636001 0.81253338 1.9250001
-0.95700002 0.81216669 1.925
-0.91299999 0.81216669 1.925
-0.90933329 0.81216669 1.925
-0.91483331 0.82133329 1.925
-1.1062857 0.57895625 1.9360001
-1.0952229 0.57895625 1.9360001
-1.086004 0.57895619 1.936
-1.0150173 0.57250291 1.936
-1.003032 0.57158101 1.936
-0.94403052 0.57895625 1.9360001
-0.93542612 0.57649785 1.9360001
-0.91575879 0.57772702 1.9360001
-0.8665905 0.57526863 1.936
-0.85552776 0.57526863 1.9360001
-1.069409 0.58264393 1.936
-1.021471 0.58633143 1.936
-0.94403052 0.58448768 1.9360001
-0.93542612 0.58387315 1.9360001
-0.92559242 0.58264393 1.936
-0.91452968 0.58448768 1.9360001
-0.90531051 0.58448768 1.936
-0.89977908 0.58448768 1.936
-1.03576 0.59416765 1.936
-1.0258961 0.59296912 1.9360001
-0.9403429 0.59001899 1.936
-0.93419689 0.59124827 1.9360001
-0.92743623 0.59370673 1.9360001
-0.91637337 0.59278476 1.936
-0.89977908 0.59370667 1.9360001
-0.95324957 0.60845721 1.936
-0.94648898 0.60722804 1.9360001
-0.93481147 0.6066134 1.936
-0.92682165 0.60231125 1.9360001
-0.91821718 0.60108203 1.936
-0.9034667 0.60108203 1.936
-0.89793527 0.60292578 1.936
-0.95878088 0.61214483 1.936
-0.94280136 0.61337405 1.9360001
-0.92436326 0.62443686 1.9360001
-0.96615624 0.63242674 1.9360001
-0.95509338 0.63242668 1.9360001
-0.94329304 0.63279545 1.9360001
-0.93481147 0.6361143 1.936
-0.92559242 0.63427049 1.9360001
-0.9160046 0.63427049 1.9360001
-0.90531051 0.63795811 1.936
-0.89670604 0.63549972 1.9360001
-0.8850286 0.63795817 1.9360001
-0.87273663 0.63549972 1.9360001
-0.8665905 0.63795811 1.936
-0.92611921 0.64533341 1.9360001
-0.91545147 0.64809906 1.936
-0.90531051 0.64902103 1.936
-0.89556468 0.64638698 1.9360001
-0.88555545 0.64427978 1.9360001
-0.87350476 0.64487243 1.936
-0.8665905 0.64533341 1.9360001
-0.85368389 0.64348948 1.936
-0.92927998 0.65270859 1.936
-0.90592515 0.65393782 1.9360001
-0.89609146 0.65270865 1.9360001
-0.90715432 0.66008377 1.936
-0.91452956 0.67852187 1.9360001
-0.90715432 0.67483425 1.936
-0.9133004 0.6871264 1.9360001
-0.91084188 0.71539807 1.936
-0.91084188 0.72646099 1.936
-0.91084188 0.73199236 1.936
-0.91084188 0.7467429 1.936
-0.91084188 0.75596189 1.9360001
-0.91575879 0.76456636 1.9360001
-0.91637337 0.77255625 1.936
-0.91821718 0.78730667 1.936
-0.91452962 0.82233912 1.936
-1.023566 0.57112002 1.947
-1.019857 0.57112002 1.947
-1.0031686 0.57482862 1.947
-0.93270582 0.57853723 1.947
-0.92714292 0.57853723 1.947
-0.91787148 0.57853723 1.947
-0.87645912 0.57544672 1.9470003
-0.86409712 0.57606483 1.947
-0.93456012 0.58595443 1.9470003
-0.92714298 0.58595443 1.947
-0.91601717 0.58224583 1.947
-0.90340805 0.58447099 1.9470001
-0.87475932 0.58549082 1.9470003
-0.8648389 0.58372927 1.9470001
-0.85667998 0.58224583 1.947
-0.92714292 0.59522575 1.947
-0.91601723 0.59559661 1.9470001
-0.90489149 0.59522575 1.947
-0.89005721 0.59337151 1.947
-0.8744812 0.59485495 1.9470001
-0.93456012 0.60820568 1.947
-0.92621577 0.60542428 1.947
-0.91601723 0.60449725 1.9470003
-0.90612769 0.60326105 1.947
-0.89323598 0.60555679 1.9470003
-0.88264012 0.60635144 1.947
-0.87151438 0.60264295 1.947
-0.97164577 0.61933148 1.947
-0.96422863 0.61747718 1.947
-0.95495719 0.61562288 1.947
-0.9419772 0.61562288 1.947
-0.93409652 0.61608642 1.9470003
-0.92565948 0.61562294 1.9470001
-0.91539919 0.61500478 1.9470003
-0.90489143 0.61562282 1.9470003
-0.89376569 0.61562282 1.9470003
-0.88356727 0.61562288 1.947
-0.87151438 0.61562288 1.947
-0.97535431 0.62489438 1.947
-0.96793717 0.62489438 1.947
-0.93085152 0.62304008 1.947
-0.92467058 0.62427628 1.947
-0.91601723 0.62489438 1.9470003
-0.90489149 0.62489438 1.9470003
-0.89376581 0.62489438 1.9470003
-0.88449442 0.62489438 1.947
-0.87429577 0.62582147 1.947
-0.97535431 0.63045722 1.947
-0.96793717 0.63045722 1.947
-0.95310289 0.6341657 1.947
-0.94475865 0.63138431 1.947
-0.93641436 0.63231146 1.947
-0.92528868 0.63045722 1.947
-0.91548741 0.63469565 1.9470003
-0.90489161 0.633636 1.9470003
-0.89330214 0.63370222 1.9470003
-0.88449448 0.63416582 1.9470003
-0.87460488 0.63292962 1.9470003
-0.86780572 0.63602006 1.947
-0.92590678 0.64405525 1.947
-0.91654706 0.64635104 1.9470003
-0.90581864 0.64621854 1.947
-0.86558056 0.64529151 1.9470001
-0.85667998 0.64158291 1.947
-0.89191145 0.65456289 1.947
-0.88449436 0.65270859 1.947
-0.87151438 0.65641719 1.947
-0.86595142 0.65641719 1.947
-0.91230857 0.66754287 1.947
-0.90767294 0.66290718 1.947
-0.91230857 0.67496002 1.947
-0.90860009 0.67496008 1.947
-0.91354483 0.68732202 1.947
-0.90860009 0.68979442 1.947
-0.91230857 0.6953572 1.947
-0.91230857 0.70462865 1.947
-0.91230857 0.71204579 1.947
-0.91601717 0.76767433 1.947
-0.91601717 0.77138293 1.947
-0.92343438 0.78436291 1.947
-0.91972578 0.81588578 1.947
-0.91972578 0.83072001 1.947
-1.01816 0.57807618 1.9579999
-0.91186857 0.57807618 1.9579999
-0.90440953 0.57807618 1.9579999
-0.89259946 0.57683301 1.9579999
-0.88514042 0.5755899 1.9579999
-0.87395179 0.5755899 1.9579999
-0.8689791 0.57434672 1.9579999
-0.91373336 0.58180571 1.9579999
-0.90347719 0.58460289 1.9579999
-0.8940202 0.58606809 1.9580002
-0.88762677 0.58553529 1.9579999
-0.86338472 0.58926481 1.9579999
-0.9025448 0.594859 1.9579999
-0.89508575 0.59448606 1.9580001
-0.88638353 0.59423745 1.9579999
-0.87270862 0.594859 1.9579999
-0.8689791 0.594859 1.9579999
-0.9025448 0.60231811 1.9579999
-0.89446419 0.60293972 1.9580001
-0.8838973 0.60418296 1.9580002
-0.87270868 0.6041829 1.9579999
-0.86897916 0.6041829 1.9579999
-0.92492193 0.61910099 1.9579999
-0.89135623 0.61350667 1.9579999
-0.88203251 0.61537147 1.9580001
-0.87420034 0.61537147 1.9580001
-0.86897916 0.61537147 1.9579999
-0.9771353 0.62655997 1.9579999
-0.96781147 0.62283051 1.9579999
-0.95475811 0.62506819 1.9580001
-0.94605589 0.62531686 1.9579999
-0.93984002 0.62655997 1.9579999
-0.92119241 0.62283051 1.9579999
-0.89135623 0.62283051 1.9579999
-0.88203251 0.62469524 1.9579999
-0.87270862 0.62469524 1.9579999
-0.86773586 0.62407368 1.9579999
-0.9771353 0.63215435 1.9579999
-0.96687913 0.63308674 1.9579999
-0.95569044 0.63122195 1.9579999
-0.94356948 0.63028961 1.9579999
-0.93984002 0.63028961 1.9579999
-0.92119241 0.63401908 1.9579999
-0.87270862 0.63215435 1.9579999
-0.8667413 0.63551092 1.9580001
-0.8559258 0.6377486 1.9579999
-0.86674136 0.6437158 1.9580001
-0.85654736 0.6427213 1.9579999
-0.87270862 0.65639621 1.9579999
-0.86524951 0.65639627 1.9579999
-0.91000378 0.66758478 1.9579999
-0.90503114 0.66509849 1.9579999
-0.89508581 0.66012567 1.9579999
-0.91000384 0.67504382 1.9579999
-0.91373342 0.68809712 1.9579999
-0.91186857 0.69742101 1.9579999
-0.91373342 0.70488 1.9579999
-0.91746289 0.71979809 1.9579999
-0.91746289 0.7253924 1.9579999
-0.91746294 0.7347163 1.9579999
-0.91746289 0.74403995 1.9579999
-0.91746294 0.76455235 1.9579999
-0.92119241 0.7794705 1.9579999
-0.91746289 0.77387619 1.9579999
-0.92492187 0.78320003 1.9579999
-0.92305714 0.81490099 1.9579999
-0.92119241 0.82422483 1.9579999
-0.92492187 0.83914292 1.9579999
-0.92492187 0.84287238 1.9579999
-1.0332561 0.57382292 1.969
-1.027631 0.57569814 1.969
-0.9226172 0.57757342 1.969
-0.91417861 0.57663578 1.969
-0.90386486 0.57569814 1.9690001
-0.89448869 0.57382292 1.969
-0.88886279 0.57382292 1.969
-0.9226172 0.5813238 1.969
-0.9038648 0.58507431 1.9690001
-0.87011051 0.59632581 1.969
-0.86448479 0.59632581 1.969
-0.87011051 0.60382664 1.9690001
-0.86448479 0.6000762 1.969
-0.87011051 0.61507815 1.9690001
-0.96762288 0.6263296 1.969
-0.87011051 0.62257898 1.969
-0.97262353 0.63133019 1.9690001
-0.96762288 0.63195527 1.969
-0.95262098 0.63383049 1.969
-0.87011051 0.63383049 1.9690001
-0.9038648 0.66758478 1.969
-0.8851124 0.66383427 1.969
-0.91136569 0.67508572 1.969
-0.90761518 0.67133528 1.969
-0.91511631 0.70696485 1.969
-0.91886669 0.71634102 1.969
-0.91886669 0.72009152 1.969
-0.9226172 0.75759619 1.969
-0.92449236 0.78572476 1.969
-0.93011808 0.79510105 1.9690001
-0.93011808 0.8044771 1.969
-0.93011808 0.8119781 1.969
-0.92636758 0.81760389 1.969
-0.92386734 0.82385463 1.9690001
-0.92636758 0.834481 1.969
-0.9202286 0.57702857 1.98
-0.87120008 0.60720003 1.98
-0.8674286 0.60720003 1.98
-0.87120008 0.61285722 1.98
-0.86554289 0.61285716 1.98
-0.87120008 0.62794292 1.98
-0.87120008 0.63548577 1.98
-0.86554289 0.63548577 1.98
-0.85988581 0.63548577 1.98
-0.85988581 0.6411429 1.98
-0.90137148 0.66754287 1.98
-0.89571434 0.66754287 1.98
-0.9051429 0.67131442 1.98
-0.91645718 0.68451428 1.98
-0.9202286 0.69582862 1.98
-0.9202286 0.70148581 1.98
-0.9202286 0.71657151 1.98
-0.92400008 0.72788572 1.98
-0.92400014 0.73542869 1.98
-0.92777151 0.76560003 1.98
-0.93154287 0.79765719 1.98
-0.92777151 0.79388583 1.98
-0.93154287 0.8052001 1.98
-0.93154287 0.8146286 1.98
-0.92777151 0.83537149 1.98
-0.93154287 0.84668577 1.98
-0.92777151 0.84480011 1.98
-0.93154287 0.8523429 1.98
-0.92777151 0.8523429 1.98
-0.87521523 0.62605727 1.992
-0.86699438 0.62985152 1.992
-0.87268579 0.63364577 1.992
-0.86699438 0.63364577 1.992
-0.87458289 0.64502859 1.992
-0.86889148 0.64502859 1.992
-0.91252577 0.67917722 1.992
-0.89355433 0.67538291 1.992
-0.88786292 0.67538291 1.992
-0.91821718 0.68297148 1.992
-0.92327631 0.69561911 1.992
-0.92201155 0.70573723 1.992
-0.91821718 0.70953149 1.992
-0.92201149 0.7152229 1.992
-0.91821718 0.7133258 1.992
-0.924541 0.72470868 1.992
-0.92960012 0.76454866 1.992
-0.92960012 0.77782857 1.992
-0.92960012 0.78541726 1.992
-0.92960012 0.79300582 1.992
-0.93339431 0.80628574 1.992
-0.93465912 0.81577152 1.992
-0.93339431 0.82525718 1.992
-0.92960012 0.83664006 1.992
-0.92833537 0.84865522 1.992
-0.9277029 0.85561144 1.992
-0.91184193 0.67911237 2.003
-0.90611905 0.67911237 2.003
-0.91565716 0.68547106 2.003
-0.92328757 0.69246566 2.003
-0.92328757 0.70581907 2.003
-0.92455935 0.72489524 2.003
-0.9309181 0.73634088 2.003
-0.9309181 0.74206376 2.003
-0.93282568 0.76495528 2.003
-0.93282568 0.77449334 2.003
-0.9309181 0.78403139 2.003
-0.9309181 0.79356951 2.003
-0.93473327 0.80501527 2.003
-0.93473327 0.81455338 2.003
-0.93568707 0.82409143 2.003
-0.93282568 0.83458328 2.003
-0.93218982 0.84571117 2.003
-0.91346681 0.68701911 2.0150001
-0.90579057 0.68701911 2.0150001
-0.92370164 0.69597471 2.0150001
-0.91730481 0.69085717 2.0150001
-0.92626041 0.70365083 2.0150001
-0.924981 0.71388578 2.0150001
-0.924981 0.72348094 2.0150001
-0.92881912 0.73307621 2.0150001
-0.94033343 0.75802386 2.0150001
-0.9364953 0.75610483 2.0150001
-0.94033343 0.76378101 2.0150001
-0.93457627 0.76761907 2.0150001
-0.93265718 0.77145708 2.0150001
-0.93457627 0.78489053 2.0150001
-0.9364953 0.79448569 2.0150001
-0.9364953 0.80600011 2.0150001
-0.9364953 0.81559527 2.0150001
-0.9364953 0.82519054 2.0150001
-0.9364953 0.83286673 2.0150001
-0.9339366 0.84438103 2.0150001
-0.93457627 0.85397625 2.0150001
-0.9227677 0.69883239 2.027
-0.91504574 0.6949715 2.027
-0.90732378 0.6949715 2.027
-0.92662859 0.7026934 2.027
-0.92662859 0.72585911 2.027
-0.9304896 0.73358101 2.027
-0.94207251 0.75674671 2.027
-0.94207251 0.76639915 2.027
-0.93628109 0.777982 2.027
-0.9382115 0.7857039 2.027
-0.9382115 0.79535627 2.027
-0.9382115 0.80500865 2.027
-0.93589497 0.81620544 2.0270002
-0.93692458 0.82366991 2.027
-0.93545371 0.83451736 2.0270002
-0.93589497 0.84477645 2.0270002
-0.93435061 0.85520101 2.027
-0.93821156 0.86485338 2.027
-0.9382115 0.87257528 2.027
-0.9262886 0.70491147 2.039
-0.9321143 0.71462095 2.039
-0.92823052 0.71073711 2.039
-0.9321143 0.72238863 2.039
-0.9321143 0.73404002 2.039
-0.94376582 0.74763334 2.039
-0.93599808 0.74180758 2.039
-0.94376582 0.77287811 2.039
-0.93988192 0.77676189 2.039
-0.93599808 0.78647137 2.039
-0.93599814 0.79229712 2.039
-0.94376582 0.80394858 2.039
-0.93794 0.80394858 2.039
-0.93794 0.81560004 2.039
-0.93599808 0.82725137 2.039
-0.93696904 0.83404815 2.039
-0.93858737 0.86608958 2.039
-0.93988192 0.875799 2.039
-0.92588007 0.70710671 2.0510001
-0.93369329 0.71882671 2.0510001
-0.92978668 0.71296668 2.0510001
-0.93369329 0.72468668 2.0510001
-0.93760002 0.73054671 2.0510001
-0.94429731 0.75454485 2.0510004
-0.94736671 0.76570672 2.0510004
-0.94671571 0.77482235 2.0510001
-0.94280899 0.7865423 2.0510001
-0.93760002 0.78914672 2.0510001
-0.93369329 0.79696012 2.0510001
-0.94346005 0.80477345 2.0510001
-0.93760002 0.80281997 2.0510001
-0.93760002 0.81454003 2.0510001
-0.93760002 0.82430667 2.0510001
-0.93760002 0.83602679 2.0510001
-0.93760002 0.84579337 2.0510001
-0.94150674 0.85556 2.0510001
-0.93760002 0.85946667 2.0510001
-0.94150668 0.8633734 2.0510001
-0.93760002 0.86728001 2.0510001
-0.94150674 0.8750934 2.0510001
-0.93760002 0.8750934 2.0510001
-0.94150668 0.88290668 2.0510001
-0.93760002 0.88290668 2.0510001
-0.93129718 0.71713817 2.063
-0.92736769 0.71517342 2.063
-0.93522668 0.72499722 2.063
-0.93915617 0.73678577 2.063
-0.94308579 0.74660963 2.063
-0.94308585 0.75446862 2.0630002
-0.94505054 0.76429248 2.063
-0.94701529 0.77411628 2.0630002
-0.94406819 0.78492248 2.063
-0.93915617 0.78197533 2.063
-0.93915617 0.79769337 2.063
-0.93915617 0.80948192 2.063
-0.94308579 0.81341147 2.063
-0.93915617 0.81734103 2.063
-0.93784636 0.82781976 2.0630002
-0.93719143 0.83502388 2.063
-0.93758434 0.84484768 2.063
-0.94308579 0.85663629 2.063
-0.93915617 0.85270667 2.063
-0.94308579 0.86449528 2.063
-0.93719143 0.87628388 2.063
-0.93817377 0.88316047 2.063
-0.93321151 0.71968007 2.076
-0.94112009 0.73549718 2.076
-0.94507438 0.74736011 2.076
-0.94507438 0.75922292 2.076
-0.94507438 0.76515436 2.076
-0.94804013 0.77405149 2.076
-0.94902867 0.78294861 2.076
-0.94375628 0.81458294 2.076
-0.94507438 0.82644582 2.076
-0.94507438 0.86796582 2.076
-0.94309723 0.8758744 2.076
-0.93462861 0.71986288 2.0880001
-0.94258291 0.7317943 2.0880001
-0.94656003 0.74372578 2.0880001
-0.95053709 0.75764573 2.0880001
-0.95053709 0.77951998 2.0880001
-0.94656003 0.77156568 2.0880001
-0.95053709 0.78548574 2.0880001
-0.94656003 0.79145151 2.0880001
-0.94656003 0.81531429 2.0880001
-0.94656003 0.82525718 2.0880001
-0.9445715 0.8371886 2.0880001
-0.94258291 0.84514284 2.0880001
-0.94390863 0.85376 2.0880001
-0.95053709 0.86701709 2.0880001
-0.94656003 0.86303997 2.0880001
-0.94044763 0.72834671 2.1010001
-0.94444948 0.73635048 2.1010001
-0.94845152 0.74235344 2.1010001
-0.95245337 0.75435913 2.1010001
-0.95245337 0.76836568 2.1010001
-0.95245337 0.77236772 2.1010001
-0.95245337 0.78637433 2.1010001
-0.95245337 0.79237717 2.1010001
-0.94845152 0.79637903 2.1010001
-0.95512128 0.80705088 2.1010003
-0.95245337 0.81438756 2.1010001
-0.94845152 0.82439244 2.1010003
-0.95245337 0.83639812 2.1010001
-0.94845152 0.83239621 2.1010001
-0.92310607 0.83373022 2.1010003
-0.91643631 0.83239621 2.1010001
-0.94444948 0.8444019 2.1010001
-0.9457835 0.86307752 2.1010003
-0.95245337 0.87441623 2.1010001
-0.95245337 0.88041902 2.1010001
-0.95029342 0.74694669 2.1140001
-0.94492453 0.74761784 2.1140001
-0.95230675 0.75298673 2.1140001
-0.94626671 0.75298673 2.1140001
-0.95834672 0.76707995 2.1140001
-0.9563334 0.78721333 2.1140001
-0.95432001 0.79526675 2.1140001
-0.96237338 0.80533338 2.1140001
-0.95700455 0.80801785 2.1140001
-0.95432001 0.8154 2.1140001
-0.95432001 0.82143998 2.1140001
-0.93015999 0.83352011 2.1140001
-0.92412007 0.83352011 2.1140001
-0.95432001 0.84157342 2.1140001
-0.94425344 0.84761333 2.1140001
-0.93821329 0.84962672 2.1140001
-0.95029342 0.85768002 2.1140001
-0.94492453 0.85499561 2.1140001
-0.93821329 0.85365337 2.1140001
-0.95029342 0.86170667 2.1140001
-0.94626671 0.86372 2.1140001
-0.95432001 0.87378669 2.1140001
-0.94803429 0.73736 2.1270001
-0.95208579 0.74343717 2.1270001
-0.94803429 0.75761718 2.1270001
-0.96018863 0.76572007 2.1270003
-0.95478672 0.76842105 2.1270003
-0.96018863 0.77584863 2.1270001
-0.96018863 0.78192568 2.1270001
-0.96018863 0.79002857 2.1270001
-0.95411146 0.8062343 2.1270001
-0.96018863 0.81028569 2.1270001
-0.93588012 0.83594483 2.1270003
-0.92507619 0.83594483 2.1270003
-0.95411146 0.84674859 2.1270001
-0.94803429 0.84674859 2.1270001
-0.93993151 0.84269708 2.1270001
-0.95613718 0.85079998 2.1270001
-0.94600856 0.85079998 2.1270001
-0.93993151 0.85282576 2.1270001
-0.94600856 0.86497998 2.1270001
-0.93993151 0.86497998 2.1270001
-0.95343626 0.87780952 2.1270003
-0.94803429 0.87308288 2.1270001
-0.96018863 0.88523722 2.1270001
-0.95613718 0.88321149 2.1270001
-0.95382857 0.74594289 2.1400001
-0.95382857 0.75205719 2.1400001
-0.94771433 0.75817138 2.1400001
-0.961981 0.7663238 2.1400001
-0.95586669 0.7663238 2.1400001
-0.94975239 0.76224768 2.1400001
-0.961981 0.77855241 2.1400001
-0.95790482 0.77447617 2.1400001
-0.961981 0.78466666 2.1400001
-0.96401906 0.7948572 2.1400001
-0.961981 0.80504775 2.1400001
-0.961981 0.81727624 2.1400001
-0.961981 0.82542861 2.1400001
-0.961981 0.83561909 2.1400001
-0.95586669 0.83969527 2.1400001
-0.961981 0.84580958 2.1400001
-0.95586669 0.84580958 2.1400001
-0.94975239 0.84784758 2.1400001
-0.94771433 0.85192382 2.1400001
-0.96333975 0.89540327 2.1400001
-0.95790482 0.89268577 2.1400001
-0.96605718 0.90491426 2.1400001
-0.96605718 0.91306669 2.1400001
-0.95552188 0.72996962 2.1530001
-0.9575724 0.736121 2.1530001
-0.95552188 0.7443229 2.1530001
-0.95388156 0.75539541 2.1530001
-0.94526958 0.75867617 2.1530001
-0.95142102 0.76687813 2.1530001
-0.94526958 0.76482761 2.1530001
-0.95620549 0.77507997 2.1530001
-0.94526958 0.77097899 2.1530001
-0.96372378 0.7873829 2.1530001
-0.95962292 0.78328192 2.1530001
-0.96536416 0.79640496 2.1530001
-0.96372378 0.80583727 2.1530001
-0.96372378 0.81198871 2.1530001
-0.95962292 0.81608957 2.1530001
-0.96372384 0.82429147 2.1530004
-0.96372378 0.83659428 2.1530001
-0.95962292 0.83659428 2.1530001
-0.96372378 0.84069532 2.1530001
-0.95552194 0.8447963 2.1530004
-0.94526958 0.84069532 2.1530001
-0.93911809 0.84069532 2.1530001
-0.9575724 0.88580573 2.1530001
-0.96372378 0.89400768 2.1530001
-0.95962292 0.89400768 2.1530001
-0.9657743 0.90426004 2.1530001
-0.97192568 0.91041148 2.1530001
-0.96782482 0.91656291 2.1530001
-0.96782482 0.92476475 2.1530001
-0.96586287 0.7470991 2.1670001
-0.95760763 0.74503529 2.1670001
-0.95513117 0.75452882 2.1670001
-0.94935238 0.75948191 2.1670001
-0.96173519 0.78837532 2.1670001
-0.95623177 0.78149593 2.1670003
-0.94728863 0.78012002 2.1670001
-0.96448702 0.79525465 2.1670003
-0.96586293 0.80488575 2.1670003
-0.96448696 0.8158927 2.1670003
-0.95760763 0.81726861 2.1670001
-0.963799 0.82552385 2.1670001
-0.96723878 0.83653086 2.1670003
-0.96173519 0.8461619 2.1670001
-0.95760763 0.8461619 2.1670001
-0.96173519 0.85028952 2.1670001
-0.96173519 0.89569342 2.1670001
-0.963799 0.90394849 2.1670001
-0.97411811 0.91633141 2.1670001
-0.96999049 0.9142676 2.1670001
-0.96999049 0.92458671 2.1670003
-0.96999049 0.9328419 2.1670001
-0.96379429 0.74361712 2.181
-0.95756286 0.74777138 2.181
-0.9554857 0.75400281 2.181
-0.95271623 0.76438856 2.1810002
-0.94717717 0.76438862 2.181
-0.95756286 0.78931433 2.181
-0.96587145 0.7955457 2.181
-0.95964003 0.79346848 2.181
-0.96794862 0.80593139 2.181
-0.96794862 0.81423998 2.1810002
-0.96794862 0.83708858 2.181
-0.96656388 0.84608954 2.1810002
-0.9554857 0.84747428 2.1810002
-0.96794862 0.89732569 2.181
-0.96794862 0.90563428 2.181
-0.97210288 0.91601998 2.181
-0.96744949 0.73969138 2.194
-0.96535993 0.74596006 2.194
-0.95491242 0.74804962 2.194
-0.9486438 0.74804962 2.194
-0.95560896 0.75362158 2.194
-0.9486438 0.75222862 2.194
-0.95491242 0.76476568 2.194
-0.96953899 0.82327229 2.194
-0.96675301 0.83720255 2.1940002
-0.96536005 0.84625721 2.1940002
-0.96953899 0.8984952 2.194
-0.97371799 0.91939038 2.194
-0.96953899 0.91103238 2.194
-0.97580755 0.92565906 2.194
-0.97650409 0.9347136 2.194
-0.97789711 0.94237518 2.194
-0.96451062 0.74721527 2.2079999
-0.95750111 0.74721527 2.2079999
-0.95890301 0.76543999 2.2079999
-0.97572583 0.8074972 2.2079999
-0.97572583 0.82221723 2.2079999
-0.97152013 0.83483434 2.2079999
-0.9673143 0.83273149 2.2079999
-0.96451062 0.84534872 2.2079999
-0.96310872 0.85376012 2.2079999
-0.97572583 0.90843427 2.2079999
-0.97572583 0.91264009 2.2079999
-0.97572583 0.92525721 2.2079999
-0.97852963 0.93647242 2.2079999
-0.97782862 0.94418293 2.2079999
-0.97993147 0.95049149 2.2079999
-0.96329999 0.7664057 2.223
-0.98235428 0.82145149 2.223
-0.97812003 0.82780284 2.223
-0.97812003 0.83415419 2.223
-0.97388572 0.84262288 2.223
-0.97812003 0.91460574 2.223
-0.97812003 0.92519146 2.223
-0.97812003 0.93154281 2.223
-0.98235428 0.94001138 2.223
-0.98235428 0.95483148 2.223
