# .PCD v0.7 - Point Cloud Data file format
VERSION 0.7
FIELDS x y z
SIZE 4 4 4
TYPE F F F
COUNT 1 1 1
WIDTH 396
HEIGHT 1
VIEWPOINT 0 0 0 1 0 0 0
POINTS 396
DATA ascii
1.173394 -0.82011431 2.2079999
1.173394 -0.81380582 2.2079999
1.169189 -0.80539435 2.2079999
1.169189 -0.79488003 2.2079999
1.169189 -0.78436577 2.2079999
1.169189 -0.77805722 2.2079999
1.169189 -0.76123428 2.2079999
1.169189 -0.75282288 2.2079999
1.175014 -0.83415419 2.223
1.1760726 -0.82462716 2.223
1.181366 -0.82991999 2.223
1.1743083 -0.81580579 2.223
1.168663 -0.8087486 2.223
1.172897 -0.80663145 2.223
1.1771311 -0.77487439 2.223
1.172897 -0.76428854 2.223
1.168663 -0.75793719 2.223
1.172897 -0.75793719 2.223
1.171762 -0.83301622 2.237
1.180284 -0.83301622 2.237
1.16324 -0.82236379 2.237
1.1653705 -0.81597233 2.237
1.171762 -0.81384188 2.237
1.1738925 -0.80958092 2.237
1.180284 -0.80318958 2.237
1.180284 -0.79466766 2.237
1.180284 -0.7882762 2.237
1.176023 -0.77336287 2.237
1.180284 -0.77975428 2.237
1.1638907 -0.82501841 2.2520003
1.16675 -0.8192991 2.2520001
1.1731851 -0.81715429 2.2520001
1.1839091 -0.81072003 2.2520001
1.1839091 -0.80428576 2.2520001
1.1860535 -0.78712767 2.2520001
1.1653712 -0.8254714 2.266
1.1783201 -0.82007623 2.266
1.1855134 -0.81432128 2.2660003
1.191269 -0.80281138 2.266
1.164396 -0.82333243 2.2809999
1.1745343 -0.82405657 2.2809999
1.181775 -0.82550478 2.2809999
1.190465 -0.81681532 2.2809999
1.199154 -0.80378097 2.2809999
1.168189 -0.82254481 2.2969999
1.176939 -0.82691997 2.2969999
1.18569 -0.82691997 2.2969999
1.1922525 -0.82473236 2.2969999
1.198815 -0.81816959 2.2969999
1.203191 -0.81816959 2.2969999
1.207566 -0.80504388 2.2969999
1.147192 -0.82571429 2.312
1.153798 -0.8279162 2.312
1.184625 -0.82791626 2.312
1.1949 -0.82498038 2.312
1.20224 -0.82351238 2.312
1.2051761 -0.81764066 2.312
1.211048 -0.81470478 2.312
1.211048 -0.80589718 2.312
1.211048 -0.79708952 2.312
1.1657161 -0.83328772 2.3269999
1.1745811 -0.83328772 2.3270001
1.1465094 -0.82590044 2.3270001
1.1538967 -0.82590032 2.3270001
1.1627614 -0.8273778 2.3270001
1.1745811 -0.82885528 2.3269999
1.1864008 -0.8273778 2.3270001
1.1945264 -0.82663906 2.3269999
1.2033916 -0.8244229 2.3269999
1.183446 -0.81555808 2.3269999
1.2129948 -0.81555814 2.3270001
1.218905 -0.80669338 2.3269999
1.218905 -0.79782861 2.3269999
1.2233371 -0.79782861 2.3269999
1.1767063 -0.83157909 2.3429999
1.1856323 -0.83157909 2.3429999
1.191583 -0.83009148 2.3429999
1.1447225 -0.82116568 2.3429999
1.1536485 -0.82339716 2.3429999
1.1648061 -0.82562864 2.3429999
1.1759624 -0.82562858 2.3429999
1.1848885 -0.82562858 2.3429999
1.1945584 -0.82414097 2.3429999
1.2060874 -0.82451284 2.3429999
1.2153847 -0.82265329 2.3429999
1.1447225 -0.8167029 2.3429999
1.2183599 -0.81447148 2.3429999
1.222823 -0.81224012 2.3429999
1.222823 -0.80554581 2.3429999
1.2250545 -0.79438859 2.3429999
1.2317491 -0.79438859 2.3429999
1.1592799 -0.82228011 2.359
1.166769 -0.82377791 2.359
1.1750065 -0.82452679 2.359
1.1847423 -0.82527566 2.359
1.1922311 -0.82527566 2.359
1.208707 -0.82452679 2.359
1.2146977 -0.82377791 2.359
1.222187 -0.82228011 2.359
1.1428046 -0.8147912 2.359
1.1536633 -0.81666338 2.359
1.1660199 -0.81778681 2.359
1.2244335 -0.81554008 2.359
1.22668 -0.80879998 2.359
1.23342 -0.80430669 2.359
1.1834741 -0.82367998 2.3759999
1.1936573 -0.82481146 2.3759999
1.2053487 -0.82669723 2.3759999
1.2144004 -0.82518864 2.3759999
1.224206 -0.82367998 2.3759999
1.1329373 -0.81764573 2.3759999
1.1450059 -0.81915432 2.3759999
1.1653714 -0.81689143 2.3759999
1.1748756 -0.81553376 2.3759999
1.1834741 -0.81689143 2.3759999
1.1917717 -0.81764573 2.3759999
1.23552 -0.81010288 2.3759999
1.134491 -0.8223924 2.392
1.145882 -0.8223924 2.392
1.154994 -0.82011431 2.392
1.1641071 -0.82011431 2.392
1.2058721 -0.82163304 2.392
1.2146807 -0.82375926 2.392
1.2233369 -0.8223924 2.392
1.2358668 -0.82353145 2.392
1.1367695 -0.81327999 2.392
1.173219 -0.81555808 2.392
1.1857487 -0.81327999 2.392
1.196 -0.81555808 2.392
1.2051125 -0.81555808 2.392
1.239284 -0.81555808 2.392
1.24384 -0.81100202 2.392
1.2461181 -0.80416769 2.392
1.2552304 -0.80416769 2.392
1.2461181 -0.79733342 2.392
1.1547904 -0.82288384 2.4089999
1.163203 -0.82135433 2.4089999
1.17238 -0.82135433 2.4089999
1.2251487 -0.82135433 2.4089999
1.2373847 -0.82288384 2.4089999
1.243503 -0.82364857 2.4089999
1.1264944 -0.81676579 2.4089999
1.1364363 -0.81523627 2.4089999
1.1448486 -0.81217718 2.4089999
1.1532607 -0.81523627 2.4089999
1.1609091 -0.81676579 2.4089999
1.1769686 -0.81676579 2.4089999
1.1861455 -0.81676579 2.4089999
1.195323 -0.81217718 2.4089999
1.2045 -0.81447148 2.4089999
1.2136774 -0.81447148 2.4089999
1.2251487 -0.81447148 2.4090002
1.2366199 -0.81447148 2.4089999
1.2465616 -0.81523627 2.4089999
1.229737 -0.80758858 2.4089999
1.234326 -0.80758858 2.4089999
1.2557395 -0.79688191 2.4089999
1.1252015 -0.82252961 2.4260001
1.1760325 -0.82252961 2.4260001
1.1344435 -0.81790859 2.4260001
1.1413749 -0.81790859 2.4260001
1.16448 -0.81790859 2.4260001
1.182964 -0.81790859 2.4260001
1.1945165 -0.81790859 2.4260001
1.2037585 -0.81328762 2.4260001
1.2153105 -0.81328762 2.4260001
1.2268624 -0.81328762 2.4260001
1.233794 -0.81328762 2.4260001
1.2476569 -0.81328762 2.4260001
1.2538184 -0.81482792 2.4260001
1.2361045 -0.80866671 2.4260001
1.2453465 -0.80635619 2.4260001
1.2553587 -0.80558604 2.4260001
1.256899 -0.79942483 2.4260001
1.26152 -0.79942483 2.4260001
1.12378 -0.82363999 2.4430001
1.1330864 -0.82363999 2.4430001
1.195907 -0.82363999 2.4430001
1.1447201 -0.81898677 2.4430003
1.1563535 -0.81898671 2.4430001
1.16566 -0.81898671 2.4430001
1.195907 -0.81898671 2.4430001
1.2052134 -0.81743562 2.4430003
1.2168465 -0.81433338 2.4430001
1.2261535 -0.81433338 2.4430001
1.23546 -0.81433338 2.4430001
1.261053 -0.81433338 2.4430001
1.237787 -0.80967999 2.4430001
1.245542 -0.80812895 2.4430003
1.2540735 -0.80502671 2.4430001
1.261053 -0.80502671 2.4430001
1.1142629 -0.82656014 2.46
1.126914 -0.82468581 2.46
1.136286 -0.82468581 2.46
1.143314 -0.82468581 2.46
1.1831429 -0.82702863 2.46
1.194857 -0.82702863 2.46
1.162057 -0.81999999 2.46
1.171429 -0.81999999 2.46
1.1979811 -0.81843805 2.46
1.2070401 -0.81625146 2.46
1.2154745 -0.81437725 2.46
1.2253139 -0.81297147 2.46
1.2346859 -0.81297147 2.46
1.243276 -0.81219053 2.46
1.251086 -0.81062859 2.46
1.2674861 -0.80594277 2.46
1.2768569 -0.80594277 2.46
1.19652 -0.83072001 2.4779999
1.11628 -0.82363999 2.4779999
1.1249335 -0.82442665 2.4780002
1.13516 -0.82599998 2.4779999
1.1446 -0.82599998 2.4779999
1.1532533 -0.82442665 2.4780002
1.1642668 -0.82442665 2.4780002
1.17528 -0.82285345 2.4780002
1.1862934 -0.82442665 2.4780002
1.19652 -0.82363999 2.4779999
1.2036 -0.82128012 2.4779999
1.1973066 -0.81498671 2.4780002
1.20596 -0.81420004 2.4779999
1.2146133 -0.81341338 2.4780002
1.22484 -0.81184012 2.4779999
1.23428 -0.81184012 2.4779999
1.2437201 -0.81184012 2.4779999
1.25316 -0.81184012 2.4779999
1.2649601 -0.81184018 2.4780002
1.22484 -0.80712008 2.4779999
1.23428 -0.80712008 2.4779999
1.26968 -0.8047601 2.4779999
1.2869867 -0.80554676 2.4780002
1.1148801 -0.82249153 2.4960001
1.1243885 -0.82249153 2.4960001
1.136274 -0.82724571 2.4960001
1.1434059 -0.82724571 2.4960001
1.152914 -0.82724571 2.4960001
1.167177 -0.82724571 2.4960001
1.1861939 -0.82486862 2.4960001
1.1964954 -0.82407629 2.4960001
1.117257 -0.81773722 2.4960001
1.1980799 -0.81298292 2.4960001
1.204419 -0.81456774 2.4960001
1.21472 -0.81298292 2.4960001
1.2242285 -0.81298292 2.4960001
1.2551315 -0.81298292 2.4960001
1.267017 -0.81298292 2.4960001
1.286034 -0.81298292 2.4960001
1.1980799 -0.80822861 2.4960001
1.2052115 -0.80585146 2.4960001
1.21472 -0.80585146 2.4960001
1.2242285 -0.80585146 2.4960001
1.2329447 -0.80664384 2.4960001
1.2432461 -0.80822861 2.4960001
1.2503771 -0.80822861 2.4960001
1.102968 -0.82523054 2.5139999
1.113343 -0.82363433 2.5139999
1.120526 -0.82363433 2.5139999
1.1360887 -0.82483149 2.5139999
1.146863 -0.82602865 2.5139999
1.15644 -0.82602859 2.5139999
1.1660171 -0.82602859 2.5139999
1.1755946 -0.8284229 2.5139999
1.1851716 -0.82602865 2.5139999
1.1939503 -0.82523054 2.5139999
1.2043254 -0.82363433 2.5139999
1.10616 -0.81884581 2.5139999
1.113343 -0.81884581 2.5139999
1.12292 -0.81884581 2.5139999
1.168411 -0.81884581 2.5139999
1.1851716 -0.81645149 2.5139999
1.1947484 -0.81645149 2.5139999
1.201931 -0.81645149 2.5139999
1.266577 -0.81405717 2.5139999
1.2761545 -0.81405717 2.5139999
1.283337 -0.81645149 2.5139999
1.2953086 -0.81405717 2.5139999
1.302492 -0.81405717 2.5139999
1.20672 -0.80926859 2.5139999
1.216297 -0.80448002 2.5139999
1.2258739 -0.80448002 2.5139999
1.2306629 -0.80448002 2.5139999
1.245029 -0.80926859 2.5139999
1.288126 -0.80926859 2.5139999
1.104434 -0.83435428 2.5320001
1.1060417 -0.82631624 2.5320001
1.138194 -0.82470858 2.5320001
1.1454285 -0.82470858 2.5320001
1.1550745 -0.82470858 2.5320001
1.1647201 -0.82470858 2.5320001
1.171954 -0.82470858 2.5320001
1.1840115 -0.82712001 2.5320001
1.109257 -0.81747425 2.5320001
1.1164916 -0.81506276 2.5320001
1.1261375 -0.81747425 2.5320001
1.1349787 -0.81827807 2.5320001
1.157486 -0.81988567 2.5320001
1.1652023 -0.81602746 2.5320001
1.1738833 -0.81602746 2.5320001
1.1835293 -0.81602734 2.5320001
1.1936575 -0.81506288 2.5320001
1.2033025 -0.81506288 2.5320001
1.2121447 -0.81184763 2.5320001
1.225006 -0.81023997 2.5320001
1.2467085 -0.81023997 2.5320001
1.2571584 -0.81184763 2.5320001
1.266 -0.8126514 2.5320001
1.2756455 -0.8126514 2.5320001
1.2860954 -0.81345528 2.5320001
1.2949375 -0.8126514 2.5320001
1.3045825 -0.81506288 2.5320001
1.311817 -0.81506288 2.5320001
1.21536 -0.80541718 2.5320001
1.2225945 -0.80541718 2.5320001
1.0957155 -0.83089721 2.5510001
1.1054335 -0.83089721 2.5510001
1.0957155 -0.82360864 2.5510001
1.1054335 -0.82360864 2.5510001
1.112722 -0.82360864 2.5510001
1.146735 -0.82117909 2.5510001
1.1540235 -0.82360864 2.5510001
1.162932 -0.82279885 2.5510001
1.0965254 -0.81470048 2.5510001
1.1062434 -0.81470048 2.5510001
1.1151515 -0.81389058 2.5510001
1.1248695 -0.81146097 2.5510001
1.1345875 -0.81389058 2.5510001
1.1443055 -0.81389058 2.5510001
1.1540235 -0.81632012 2.5510001
1.1645521 -0.81470048 2.5510001
1.1726507 -0.81308073 2.5510001
1.1839885 -0.81308073 2.5510001
1.1937064 -0.81308073 2.5510001
1.205044 -0.81389058 2.5510004
1.2163817 -0.81308073 2.5510001
1.2463455 -0.81146097 2.5510001
1.2560635 -0.81146097 2.5510001
1.2657815 -0.81146097 2.5510001
1.2755005 -0.81146097 2.5510001
1.2852185 -0.81146097 2.5510001
1.2941267 -0.81308073 2.5510001
1.3038447 -0.81308073 2.5510001
1.3143725 -0.81389058 2.5510001
1.3232807 -0.81308073 2.5510001
1.2074735 -0.80660188 2.5510001
1.2196209 -0.80660188 2.5510001
1.248775 -0.80660188 2.5510001
1.307084 -0.80660188 2.5510001
1.0940855 -0.82240009 2.5699999
1.0940855 -0.81750482 2.5699999
1.1038765 -0.81505722 2.5699999
1.1136665 -0.81505722 2.5699999
1.1210099 -0.81260961 2.5699999
1.1332475 -0.81260961 2.5699999
1.1430385 -0.81260961 2.5699999
1.1528285 -0.81260961 2.5699999
1.1650671 -0.81750482 2.5700002
1.1773045 -0.81260961 2.5699999
1.1870955 -0.81260961 2.5699999
1.1968855 -0.81260961 2.5699999
1.2066765 -0.81260961 2.5699999
1.22381 -0.81260961 2.5699999
1.2336 -0.81260961 2.5699999
1.248286 -0.81750482 2.5699999
1.253181 -0.81260961 2.5699999
1.2654195 -0.81260961 2.5699999
1.2752094 -0.81260961 2.5699999
1.2850001 -0.81260961 2.5699999
1.2947905 -0.81260961 2.5699999
1.3045809 -0.81260961 2.5699999
1.311924 -0.81260961 2.5699999
1.2140189 -0.80771428 2.5699999
1.307029 -0.80771428 2.5699999
1.316819 -0.80771428 2.5699999
1.0873799 -0.81861722 2.589
1.096421 -0.81697339 2.5890002
1.109571 -0.81861722 2.589
1.119434 -0.8161515 2.589
1.1268315 -0.81368577 2.589
1.1358726 -0.81532955 2.5890002
1.1465576 -0.81368577 2.589
1.15642 -0.81368577 2.589
1.1671051 -0.81532955 2.5890002
1.176146 -0.8161515 2.589
1.1860085 -0.81368577 2.589
1.1958715 -0.81368577 2.589
1.2082 -0.81368577 2.589
1.2155975 -0.81368577 2.589
1.237789 -0.81368577 2.589
1.2460073 -0.81532955 2.5890002
1.2542267 -0.81697339 2.5890002
1.2649115 -0.81368577 2.589
1.2747746 -0.81368577 2.589
1.2846375 -0.81368577 2.589
1.2945 -0.81368577 2.589
1.304363 -0.81368577 2.589
1.3117599 -0.81368577 2.589
