# .PCD v0.7 - Point Cloud Data file format
VERSION 0.7
FIELDS x y z
SIZE 4 4 4
TYPE F F F
COUNT 1 1 1
WIDTH 116
HEIGHT 1
VIEWPOINT 0 0 0 1 0 0 0
POINTS 116
DATA ascii
1.12632 -0.92730862 2.223
1.122086 -0.91037142 2.223
1.117851 -0.90613723 2.223
1.124203 -0.90402007 2.223
1.122086 -0.89343429 2.223
1.124203 -0.88496566 2.223
1.1249087 -0.87508571 2.223
1.122761 -0.92888761 2.237
1.120631 -0.91184378 2.237
1.120631 -0.88414758 2.237
1.1142039 -0.94476765 2.2520001
1.1152763 -0.93940568 2.2520003
1.107103 -0.96466863 2.266
1.1157349 -0.96466863 2.266
1.109261 -0.95603621 2.266
1.1150157 -0.95675558 2.2660003
1.109261 -0.94308758 2.266
1.114656 -0.94416666 2.266
1.1164544 -0.93517464 2.2660003
1.109261 -0.85676378 2.266
1.105742 -0.97322673 2.2809999
1.1061764 -0.96540612 2.2809999
1.112259 -0.96236473 2.2809999
1.107914 -0.95367527 2.2809999
1.1137074 -0.95439947 2.2809999
1.1144315 -0.92543435 2.2810001
1.107914 -0.91457248 2.2809999
1.107914 -0.90588289 2.2809999
1.107914 -0.89502108 2.2809999
1.105742 -0.88415909 2.2809999
1.105742 -0.87546957 2.2809999
1.099225 -0.86243528 2.2809999
1.105742 -0.86460769 2.2810001
1.0970526 -0.85591811 2.2809999
1.105742 -0.8537457 2.2809999
1.107914 -0.84505624 2.2809999
1.107914 -0.83636671 2.2809999
1.106935 -0.98005342 2.2969999
1.106935 -0.97349048 2.2969999
1.111311 -0.96255243 2.2969999
1.106935 -0.95817721 2.2969999
1.1047475 -0.92317528 2.2969999
1.1047475 -0.9144249 2.2969999
1.106935 -0.90348673 2.2969999
1.106935 -0.89473629 2.2969999
1.1047475 -0.8881734 2.2969999
1.10431 -0.8759228 2.2969999
1.10256 -0.86629719 2.2969999
1.1054767 -0.85608834 2.2969999
1.106935 -0.84442109 2.2969999
1.105356 -0.97324193 2.312
1.107558 -0.93580949 2.312
1.105356 -0.92480004 2.312
1.107558 -0.91379046 2.312
1.105356 -0.86314672 2.312
1.099231 -0.94631338 2.3269999
1.099231 -0.9330163 2.3269999
1.0970144 -0.92415142 2.3269999
1.097863 -0.95505142 2.3429999
1.0963753 -0.94315052 2.3429999
1.088937 -0.93273717 2.3429999
1.0956315 -0.93496865 2.3429999
1.0956315 -0.92604291 2.3429999
1.0967472 -0.9160015 2.3429999
1.0948753 -0.93161792 2.359
1.0948753 -0.92412901 2.359
1.096373 -0.87620008 2.359
1.086172 -0.94134861 2.3759999
1.086172 -0.93456006 2.3759999
1.09296 -0.93456006 2.3759999
1.086172 -0.88251442 2.3759999
1.086172 -0.87798858 2.3759999
1.0874112 -0.99476832 2.392
1.0798171 -0.98869342 2.392
1.0866516 -0.98641533 2.392
1.0871073 -0.97593606 2.392
1.08893 -0.96363437 2.392
1.08893 -0.95452195 2.392
1.08893 -0.9454096 2.392
1.08893 -0.93629718 2.392
1.08893 -0.92490673 2.392
1.0874112 -0.91275686 2.392
1.0866516 -0.90440392 2.392
1.0866516 -0.89529151 2.392
1.0798171 -0.88845718 2.392
1.0866516 -0.88617909 2.392
1.0855123 -0.8736496 2.392
1.0866516 -0.86567628 2.392
1.0859623 -1.0247815 2.4089999
1.0859623 -1.0156038 2.4089999
1.0851974 -1.0048974 2.4090002
1.0783139 -0.99572009 2.4089999
1.0844326 -0.992661 2.4089999
1.0851974 -0.98424864 2.4089999
1.0851974 -0.97507143 2.4089999
1.087492 -0.96589434 2.4089999
1.087492 -0.95442289 2.4089999
1.0863447 -0.94409859 2.4089999
1.0783139 -0.93148011 2.4089999
1.0851974 -0.93377441 2.4089999
1.0851974 -0.92459726 2.4089999
1.0859623 -0.91618484 2.4089999
1.0851974 -0.90624291 2.4089999
1.0851974 -0.86494577 2.4089999
1.085924 -1.0142995 2.4260001
1.0836135 -1.0050576 2.4260001
1.0843837 -0.98734349 2.4260001
1.0836135 -0.95191622 2.4260001
1.0836135 -0.94498473 2.4260001
1.0828433 -0.93497288 2.4260001
1.079573 -1.00512 2.4430001
1.079573 -0.99581331 2.4430001
1.073029 -1.026171 2.46
1.0753715 -1.014457 2.46
1.0753715 -1.0050861 2.46
1.077714 -0.99805713 2.46
