# .PCD v0.7 - Point Cloud Data file format
VERSION 0.7
FIELDS x y z
SIZE 4 4 4
TYPE F F F
COUNT 1 1 1
WIDTH 1569
HEIGHT 1
VIEWPOINT 0 0 0 1 0 0 0
POINTS 1569
DATA ascii
1.0552227 0.74423242 2.2520001
1.0659471 0.74423242 2.2520001
0.94798481 0.75495619 2.2520001
0.95484793 0.7540983 2.2520001
0.96567905 0.75442004 2.2520001
0.97543776 0.7540983 2.2520001
0.98444569 0.75495619 2.2520001
0.99516952 0.75495619 2.2520001
1.0063224 0.7540983 2.2520001
1.012328 0.75495619 2.2520003
1.046644 0.75495619 2.2520003
1.0546865 0.75441998 2.2520001
1.0659469 0.75495619 2.2520001
0.93726093 0.76353532 2.2520001
0.94584006 0.76353532 2.2520001
0.95513391 0.76496518 2.2520003
0.96428502 0.76525116 2.2520001
0.99602747 0.7652511 2.2520001
1.0058935 0.76568007 2.2520001
1.0144725 0.76568007 2.2520001
1.046644 0.76782483 2.2520001
1.0552227 0.76568007 2.2520001
1.0659471 0.76568007 2.2520001
0.93940568 0.77211428 2.2520001
0.94798481 0.77211428 2.2520001
0.95441902 0.77425903 2.2520001
0.96299809 0.77425909 2.2520001
0.97372192 0.77640378 2.2520001
0.99602747 0.77383012 2.2520001
1.0243384 0.77468807 2.2520001
1.033775 0.77640378 2.2520001
1.0552227 0.77425903 2.2520001
1.063802 0.77640378 2.2520001
0.92653722 0.78498292 2.2520001
0.93450344 0.78620851 2.2520001
0.9451251 0.78641272 2.2520003
0.95441908 0.78498292 2.2520001
0.96192575 0.78391051 2.2520001
0.99731433 0.78498292 2.2520001
1.0066084 0.78784263 2.2520003
1.0144725 0.78927243 2.2520001
1.0251964 0.78498292 2.2520001
1.0359199 0.78927243 2.2520001
1.0444989 0.78283817 2.2520001
1.0560807 0.78326714 2.2520001
1.063802 0.78498292 2.2520003
0.92653722 0.79785138 2.2520001
0.93082672 0.79570663 2.2520001
0.94369531 0.79356188 2.2520001
0.95513391 0.79499173 2.2520003
0.97801143 0.79785138 2.2520001
0.99731433 0.79570663 2.2520001
1.0051787 0.79499173 2.2520003
1.0144725 0.79570663 2.2520001
1.0251963 0.79570669 2.2520001
1.0352049 0.79499173 2.2520003
1.0444989 0.79785138 2.2520001
1.0552227 0.79677898 2.2520001
0.92653722 0.80428576 2.2520001
0.93597412 0.80471468 2.2520001
0.94584006 0.80428576 2.2520001
0.95441902 0.80428576 2.2520001
0.97372192 0.80643052 2.2520001
0.99659944 0.80357087 2.2520003
1.003749 0.80428576 2.2520001
1.0166169 0.80214101 2.2520001
1.0251963 0.80428576 2.2520001
1.0359199 0.80428576 2.2520001
1.042354 0.80643052 2.2520001
1.0573676 0.80428576 2.2520001
0.92653722 0.81286478 2.2520001
0.93583119 0.8142947 2.2520001
0.94584006 0.81500953 2.2520001
0.95441908 0.81500959 2.2520001
0.96657276 0.81643951 2.2520003
0.97543776 0.8141517 2.2520001
0.98337328 0.81608188 2.2520001
0.99516964 0.81500953 2.2520001
1.003749 0.81500959 2.2520001
1.012328 0.8192991 2.2520001
1.0264219 0.81562239 2.2520001
1.0359199 0.81500953 2.2520001
1.043784 0.81786919 2.2520003
1.0564483 0.81562245 2.2520001
1.0659471 0.81500953 2.2520001
0.93618858 0.82466102 2.2520001
0.94584 0.82573336 2.2520001
0.95441902 0.82573336 2.2520001
0.96514291 0.82573336 2.2520001
0.97586668 0.82573336 2.2520001
0.98444569 0.8257333 2.2520001
0.99624193 0.82466096 2.2520001
1.0058935 0.82573336 2.2520001
1.012328 0.82573336 2.2520001
1.0251963 0.82573336 2.2520001
1.0359199 0.82573336 2.2520001
1.043784 0.82501841 2.2520003
1.0552227 0.82573336 2.2520001
1.0659471 0.82573336 2.2520001
0.94369531 0.83431238 2.2520001
0.95656377 0.83431238 2.2520001
0.9640705 0.83538473 2.2520001
0.97658157 0.83359754 2.2520003
0.9865905 0.83645707 2.2520001
0.99516958 0.83645713 2.2520003
1.0058935 0.83431238 2.2520001
1.0144725 0.83431238 2.2520001
1.020907 0.83431238 2.2520001
1.038065 0.83216769 2.2520001
1.0452141 0.83359754 2.2520003
1.0552227 0.83431238 2.2520001
1.065232 0.83359754 2.2520003
0.93940568 0.84932578 2.2520001
0.94476765 0.84610856 2.2520001
0.95513391 0.84503621 2.2520003
0.96514291 0.84289145 2.2520001
0.97658157 0.84360641 2.2520003
0.9855181 0.84503621 2.2520001
0.99445462 0.84432125 2.2520001
1.0058935 0.84503621 2.2520001
1.0577965 0.84503621 2.2520001
1.0648745 0.84610868 2.2520001
0.93726093 0.85576004 2.2520001
0.94369531 0.85361522 2.2520001
0.98444569 0.85575998 2.2520001
0.99230993 0.85647488 2.2520003
1.0051787 0.85504508 2.2520003
0.93726093 0.86433911 2.2520001
0.96943241 0.86433911 2.2520001
0.97586668 0.8621943 2.2520001
0.98373079 0.86362422 2.2520003
0.99302483 0.8621943 2.2520001
1.003749 0.86433911 2.2520001
1.0166169 0.86433911 2.2520001
1.0223367 0.86505407 2.2520003
0.9325425 0.87592089 2.2520001
0.98230088 0.8772077 2.2520001
0.99659938 0.87649274 2.2520003
1.0048213 0.87506294 2.2520001
1.0144725 0.87506294 2.2520001
1.02466 0.87559915 2.2520001
1.0659471 0.87506288 2.2520001
0.93597412 0.88535786 2.2520001
0.98230088 0.88364202 2.2520001
1.003749 0.88364202 2.2520001
1.0144725 0.88578677 2.2520001
1.0223367 0.88507187 2.2520003
0.93940568 0.89222097 2.2520001
0.94369531 0.89436573 2.2520001
0.99945903 0.89222097 2.2520001
1.003749 0.89222097 2.2520001
1.0144725 0.89222097 2.2520001
1.020907 0.89222097 2.2520001
0.94626904 0.90423167 2.2520001
0.95484799 0.90594751 2.2520001
0.96391732 0.90570235 2.2520001
0.97586668 0.90723431 2.2520001
0.98516071 0.90651941 2.2520003
1.055223 0.90508962 2.2520001
0.93940568 0.91581333 2.2520001
0.94584 0.91581333 2.2520001
0.95441902 0.91581333 2.2520001
0.96514291 0.91581339 2.2520001
0.97515178 0.91652822 2.2520003
0.9865905 0.91581333 2.2520001
1.0294859 0.91366857 2.2520001
0.93404382 0.92332 2.2520001
0.9451251 0.92367744 2.2520003
0.9672876 0.9243924 2.2520001
0.97515178 0.92510736 2.2520003
0.9865905 0.92224759 2.2520001
1.0166169 0.92653722 2.2520001
1.0251963 0.9243924 2.2520001
1.0359199 0.9243924 2.2520001
1.042354 0.9243924 2.2520001
0.91366857 0.93082672 2.2520001
0.92224759 0.93726093 2.2520001
1.0058935 0.93726099 2.2520001
1.0149014 0.93597412 2.2520001
1.0246602 0.93457997 2.2520001
1.0359199 0.93082672 2.2520001
1.042354 0.93511617 2.2520003
0.90937912 0.94798481 2.2520001
0.91581333 0.94584006 2.2520001
0.92224759 0.94584006 2.2520001
1.0058935 0.94584 2.2520001
1.025196 0.94369531 2.2520001
0.86648393 0.95656377 2.2520001
0.90594751 0.95484799 2.2520001
0.91366857 0.95227432 2.2520001
0.85790479 0.96299809 2.2520001
0.86433911 0.96299809 2.2520001
0.87506294 0.96299815 2.2520001
0.88364202 0.96299809 2.2520001
0.89436579 0.96299809 2.2520001
0.90594751 0.96256918 2.2520001
0.91366857 0.96299809 2.2520001
0.96682668 0.72943622 2.266
0.9754591 0.72943628 2.2660003
0.98624957 0.72943622 2.266
0.99703997 0.72943622 2.266
1.0067515 0.7283572 2.266
1.016463 0.72727811 2.266
1.0229371 0.72512001 2.266
1.0453812 0.72770977 2.266
1.0553086 0.72512001 2.266
1.063941 0.72727811 2.266
0.95675558 0.73519111 2.2660003
0.96251053 0.73375243 2.266
0.97977519 0.73375243 2.266
0.98696893 0.73519111 2.2660003
0.99416256 0.73519111 2.2660003
1.0056723 0.73591053 2.266
1.016463 0.73591048 2.266
1.0243757 0.73662984 2.2660003
1.040202 0.73591048 2.266
0.92366469 0.74670088 2.266
0.98409152 0.74670088 2.266
0.99272382 0.74238479 2.266
1.0056722 0.74346387 2.266
1.0171824 0.74382353 2.2660003
1.025095 0.74454284 2.266
1.043439 0.7456218 2.266
0.92366469 0.75749147 2.266
0.94956201 0.75964952 2.266
1.018621 0.75101721 2.266
1.025095 0.75533336 2.266
1.032649 0.75533342 2.266
1.0439785 0.75587296 2.266
0.92582285 0.76612377 2.266
0.93445522 0.76612377 2.266
0.94524574 0.76396579 2.2660003
0.95603621 0.76396573 2.266
0.96682668 0.76396573 2.266
0.97977519 0.76828188 2.266
0.98553026 0.7668432 2.2660003
0.99272382 0.76828188 2.266
1.0258144 0.76540446 2.2660003
1.033728 0.76612377 2.266
1.044518 0.76612377 2.266
1.0531501 0.76828188 2.266
0.92582285 0.77475619 2.266
0.93445522 0.77475619 2.266
0.94524574 0.7743246 2.266
0.95603621 0.77259809 2.266
0.97761714 0.77475619 2.266
0.98624957 0.77475619 2.266
0.99416256 0.77403682 2.2660003
1.027253 0.77259809 2.266
1.0344474 0.77403682 2.2660003
1.044518 0.77475619 2.266
1.0531501 0.7769143 2.266
0.92798102 0.78123039 2.266
0.93373585 0.78266919 2.2660003
0.94524574 0.78338856 2.266
0.9538781 0.78338856 2.266
0.97617853 0.7869854 2.266
0.98624957 0.78554666 2.266
0.99488199 0.78554672 2.266
1.044518 0.78554672 2.266
1.0531501 0.78123039 2.266
0.93229711 0.79849517 2.266
0.94308758 0.79849517 2.266
0.9538781 0.79633713 2.266
0.96682668 0.79849517 2.266
0.9754591 0.79633713 2.266
0.98624957 0.79633713 2.266
0.99488193 0.79633713 2.266
1.066099 0.79633713 2.266
0.94524574 0.80281138 2.2660003
0.95603621 0.80281138 2.266
0.96682668 0.80496949 2.266
0.9754591 0.80496949 2.266
0.98696893 0.80568886 2.2660003
0.99488193 0.80496943 2.266
1.0157437 0.80568886 2.2660003
1.044518 0.80281138 2.266
0.94092947 0.81576002 2.266
0.96682668 0.81360191 2.266
0.97258162 0.8128826 2.2660003
0.98624957 0.81144381 2.266
0.99416256 0.8128826 2.2660003
1.005672 0.81144381 2.266
1.016463 0.81360197 2.266
1.0243757 0.81432128 2.2660003
0.92690194 0.82331336 2.266
0.93373585 0.82583112 2.2660003
0.94092947 0.82439238 2.266
0.96682668 0.82007623 2.266
0.97258162 0.82151496 2.2660003
0.98409152 0.82439238 2.266
0.99488187 0.82007623 2.266
1.0078305 0.82007623 2.266
1.0157437 0.82151496 2.2660003
1.024016 0.82331336 2.266
0.92582285 0.83518291 2.266
0.93445528 0.83518291 2.266
0.94236821 0.83590233 2.2660003
0.95603621 0.83734101 2.266
1.0229371 0.8330248 2.266
1.0531501 0.8330248 2.266
0.9193486 0.84381521 2.266
0.92582285 0.84381521 2.266
0.93445528 0.84381521 2.266
0.94308758 0.84381521 2.266
0.95603621 0.84381521 2.266
0.9193486 0.85460567 2.266
0.92582285 0.85460567 2.266
0.93445528 0.85460567 2.266
0.94236821 0.85172832 2.2660003
0.95603621 0.85028952 2.266
0.92582285 0.86539614 2.266
0.93445528 0.86539614 2.266
0.92582285 0.87402868 2.266
0.93373585 0.87330931 2.2660003
0.91503239 0.88913518 2.266
0.92582285 0.88481903 2.266
0.93229711 0.88481903 2.2660003
0.92582285 0.89345151 2.266
0.93445528 0.89560956 2.266
0.94092947 0.8977676 2.266
0.93445528 0.90424192 2.266
0.94308758 0.90424192 2.266
0.9355343 0.91611147 2.266
0.94380701 0.91431302 2.266
0.92798102 0.92582285 2.266
0.93373585 0.92510355 2.2660003
0.94092947 0.92366469 2.266
0.92654228 0.93517464 2.2660003
0.93229711 0.93229711 2.266
0.91589564 0.946109 2.266
0.92366469 0.94308758 2.266
1.025095 0.94956201 2.266
0.87618673 0.95819432 2.266
0.88266093 0.95819432 2.266
0.8977676 0.95819432 2.266
0.90640002 0.95819432 2.266
0.91071618 0.9538781 2.266
1.025095 0.9538781 2.266
0.85892189 0.96466863 2.266
0.8653962 0.96251053 2.266
0.87618673 0.96251053 2.266
0.88481903 0.96251053 2.2660003
0.89489025 0.96394932 2.2660003
0.90208381 0.96251053 2.266
0.85892189 0.97114289 2.266
0.89345151 0.97114289 2.266
0.96888202 0.72992003 2.2809999
0.97539914 0.72992003 2.2809999
0.98191619 0.72992003 2.2809999
0.99277818 0.72992003 2.2809999
1.007985 0.72992003 2.2809999
1.014502 0.72774768 2.2809999
1.0253639 0.72557533 2.2809999
1.0355014 0.72847176 2.2809999
1.0449154 0.72992003 2.2809999
1.0536045 0.72557533 2.2809999
1.064467 0.72448909 2.2809999
0.91674483 0.7364372 2.2809999
0.92652053 0.73752344 2.2809999
0.93557215 0.73571312 2.2809999
0.94498575 0.7364372 2.2809999
0.95367527 0.7364372 2.2809999
0.96453714 0.73426479 2.2809999
0.99929518 0.73426479 2.2809999
1.029709 0.73426479 2.2809999
1.0362256 0.7364372 2.2809999
1.042743 0.7364372 2.2809999
0.91674483 0.74295431 2.2809999
0.92543435 0.74512672 2.2810001
0.93629622 0.74512672 2.2809999
0.94498575 0.74512666 2.2809999
0.95367533 0.74512672 2.2809999
0.96019238 0.74729908 2.2809999
1.038398 0.74512672 2.2809999
1.042743 0.74512672 2.2809999
0.91674483 0.75381625 2.2809999
0.92456543 0.75425071 2.2809999
0.93629622 0.75381625 2.2809999
0.94498575 0.75381625 2.2809999
0.95367527 0.75381625 2.2809999
0.96019238 0.75381625 2.2809999
1.038398 0.7516439 2.2809999
1.042743 0.75381625 2.2809999
1.055777 0.7559886 2.2809999
0.91674489 0.76467818 2.2809999
0.923262 0.76467818 2.2810001
0.93629622 0.76250577 2.2809999
0.94498575 0.76250577 2.2809999
0.95295119 0.76178169 2.2809999
0.96019238 0.76033342 2.2809999
1.042743 0.76467812 2.2809999
0.91674483 0.7733677 2.2809999
0.92326194 0.77554005 2.2809999
0.91674483 0.78205723 2.2809999
0.92456543 0.78466409 2.2809999
0.9283309 0.79219502 2.2809999
0.93521011 0.79617774 2.2809999
0.92977911 0.82550478 2.2809999
0.93412387 0.82116008 2.2809999
0.92688268 0.83564258 2.2809999
0.91674483 0.84722859 2.2809999
0.92543441 0.84288388 2.2809999
0.9225378 0.8544699 2.2809999
0.92282742 0.86547661 2.2809999
0.92326194 0.87546957 2.2809999
0.92326194 0.88415909 2.2809999
0.91529655 0.8964693 2.2809999
0.92369646 0.89502108 2.2809999
0.90660703 0.90660703 2.2809999
0.91457248 0.90588289 2.2809999
0.92543429 0.90544844 2.2809999
0.93412387 0.90588289 2.2809999
0.93557215 0.91529655 2.2809999
0.92977911 0.92760676 2.2809999
0.93557215 0.9225378 2.2809999
0.92760676 0.93629622 2.2809999
0.91674483 0.94498575 2.2809999
0.92108947 0.94498575 2.2809999
0.91457248 0.95367527 2.2809999
0.86895239 0.96453708 2.2809999
0.87329721 0.96453708 2.2809999
0.89936572 0.96453708 2.2809999
0.90805531 0.96236473 2.2809999
0.91240013 0.96019238 2.2809999
1.0259935 0.72628957 2.2969999
1.0340147 0.72483122 2.2969999
1.058808 0.72628957 2.2969999
0.91880012 0.73722768 2.2969999
0.92609215 0.73649853 2.2969999
0.9333843 0.73649853 2.2969999
0.94505149 0.73394632 2.2969999
0.95598954 0.73504013 2.2969999
0.96474004 0.73504013 2.2969999
0.97349048 0.73285246 2.2969999
0.98661619 0.73066479 2.2969999
0.99463749 0.73212326 2.2969999
1.00193 0.73066479 2.2969999
1.045682 0.73066479 2.2969999
1.0522445 0.73066479 2.2969999
0.91880012 0.74597812 2.2969999
0.94505149 0.74379051 2.2969999
0.91880012 0.75472856 2.2969999
0.92317528 0.75254089 2.2969999
0.91880012 0.76347911 2.2969999
0.91880012 0.77441716 2.2969999
0.91880012 0.78535533 2.2969999
0.92317528 0.78316772 2.2969999
0.92536294 0.79410577 2.2969999
0.92755061 0.80066872 2.2969999
0.93411344 0.80504388 2.2969999
0.94067627 0.8094191 2.2969999
0.94067627 0.81598198 2.2969999
0.93630111 0.82254481 2.2969999
0.94067627 0.82254481 2.2969999
0.92536294 0.83567047 2.2969999
0.93192577 0.83348286 2.2969999
0.91880012 0.84442103 2.2969999
0.925363 0.84442109 2.2969999
0.91880012 0.85535908 2.2969999
0.92536294 0.85535908 2.2969999
0.91880012 0.86192203 2.2969999
0.92317528 0.86410964 2.2969999
0.91880012 0.8706724 2.2969999
0.92317528 0.87504768 2.2969999
0.92317528 0.88598579 2.2969999
0.91880012 0.8969239 2.2969999
0.92317528 0.89473629 2.2969999
0.9333843 0.91734171 2.2969999
0.93630111 0.92536294 2.2969999
0.92755061 0.93630111 2.2969999
0.93192577 0.93411344 2.2969999
0.92755061 0.94286388 2.2969999
0.91880012 0.95598954 2.2969999
0.91442478 0.96255243 2.2969999
0.92920381 0.7266286 2.312
1.026088 0.7266286 2.312
1.0326929 0.7266286 2.312
1.043703 0.7266286 2.312
0.92480004 0.73763812 2.312
0.93507552 0.73396826 2.312
0.94461715 0.73323429 2.312
0.95342475 0.73323429 2.312
0.96553528 0.73433524 2.312
0.97470993 0.73396826 2.312
0.98645329 0.7354362 2.312
0.99526095 0.73103237 2.312
1.0062699 0.73103237 2.312
1.01728 0.73983997 2.312
1.048107 0.73103237 2.312
1.056914 0.73103237 2.312
0.92039621 0.74644566 2.312
0.91599238 0.75745523 2.312
0.92039621 0.75525337 2.312
0.91599238 0.76626283 2.312
0.92039621 0.76406097 2.312
0.91599244 0.77507055 2.312
0.92149711 0.77617145 2.312
0.91599238 0.78608 2.312
0.92039621 0.78608 2.312
0.91599238 0.7948876 2.312
0.92259812 0.7948876 2.312
0.91599238 0.8036952 2.312
0.92920381 0.8036952 2.312
0.91599238 0.81250286 2.312
0.92920381 0.81030101 2.312
0.93507552 0.81323689 2.312
0.94241518 0.81910861 2.312
0.91599238 0.82351238 2.312
0.94241518 0.82351238 2.312
0.92479998 0.83452189 2.312
0.93801141 0.83231997 2.312
0.92149723 0.84443045 2.312
0.91599238 0.85874277 2.312
0.92039621 0.85654092 2.312
0.91599238 0.86534858 2.312
0.92039621 0.86534858 2.312
0.91599238 0.87415624 2.312
0.92186421 0.87342227 2.312
0.91599238 0.88076192 2.312
0.92259812 0.88516569 2.3120003
0.92259806 0.89617527 2.312
0.92039621 0.90498292 2.312
0.92479998 0.91158861 2.312
0.92920381 0.92700189 2.312
0.93507552 0.92773592 2.312
0.92920381 0.93801141 2.312
0.93580949 0.93580949 2.312
0.92773592 0.94388318 2.312
0.92626798 0.95269078 2.312
0.91599238 0.9688381 2.312
0.92039621 0.96443433 2.312
0.91379046 0.97324193 2.312
0.92636758 0.72691047 2.3269999
0.93523252 0.72691047 2.3270001
0.94852948 0.72691047 2.3269999
0.95296192 0.72691047 2.3269999
1.026096 0.72691047 2.3269999
0.92636758 0.73577517 2.3269999
0.93523252 0.73429775 2.3270001
0.9455747 0.73282039 2.3270001
0.95517814 0.73134291 2.3269999
0.9640429 0.73355901 2.3269999
0.97401577 0.73245102 2.3269999
0.9862048 0.73355907 2.3269999
0.99506956 0.73355901 2.3269999
1.003934 0.73134291 2.3269999
1.0161235 0.73245096 2.3269999
1.0253574 0.73429775 2.3270001
1.032745 0.73577517 2.3269999
0.91528666 0.74907237 2.3269999
0.92304337 0.74353188 2.3269999
0.93080008 0.74020761 2.3269999
1.019448 0.74242389 2.3269999
1.026096 0.74020761 2.3269999
1.032745 0.74020761 2.3269999
0.90863818 0.75793719 2.3269999
0.91528666 0.75572097 2.3269999
0.92193532 0.75572097 2.3269999
0.90863818 0.76458579 2.3269999
0.91528666 0.76458579 2.3269999
0.92193532 0.76680201 2.3269999
0.89977342 0.77566671 2.3269999
0.90642202 0.77345049 2.3269999
0.91528666 0.77345049 2.3269999
0.90642202 0.78453153 2.3269999
0.91528672 0.78453153 2.3269999
0.90642202 0.79561239 2.3269999
0.91528666 0.79561239 2.3269999
0.90863818 0.80447721 2.3269999
0.91528666 0.80447716 2.3269999
0.92636758 0.80447721 2.3269999
0.93080008 0.80669338 2.3269999
0.90863818 0.81555814 2.3270001
0.91528666 0.81555814 2.3269999
0.92636764 0.81555814 2.3270001
0.93190825 0.81666625 2.3269999
0.90863818 0.82663906 2.3269999
0.91528666 0.82663906 2.3269999
0.93523252 0.82663912 2.3269999
0.94409722 0.82663906 2.3269999
0.91528666 0.83550394 2.3269999
0.92341274 0.83624268 2.3270001
0.93611902 0.83506072 2.3269999
0.94409722 0.83328772 2.3269999
0.91528666 0.84436858 2.3269999
0.92341274 0.84362984 2.3270001
0.93744862 0.84215242 2.3269999
0.91528672 0.85544962 2.3269999
0.92193532 0.85544962 2.3270001
0.9160254 0.8657918 2.3270001
0.91750288 0.8753953 2.3269999
0.91750288 0.88426 2.3269999
0.92193532 0.89534104 2.3270001
0.91750288 0.90642202 2.3269999
0.92193532 0.90642202 2.3269999
0.91750288 0.9130705 2.3269999
0.92341274 0.9160254 2.3270001
0.9160254 0.92489022 2.3270001
0.92193532 0.92193532 2.3269999
0.91572994 0.9361189 2.3269999
0.92415142 0.93523252 2.3269999
0.93345946 0.93700546 2.3269999
0.91528666 0.94631338 2.3269999
0.92415142 0.94631338 2.3269999
0.93080008 0.94409722 2.3269999
0.9042058 0.95517814 2.3269999
0.91528666 0.95296192 2.3269999
0.92489016 0.9544394 2.3270001
0.93080008 0.95296192 2.3269999
0.90642202 0.9640429 2.3269999
0.92636758 0.9640429 2.3269999
0.90642202 0.97401577 2.3269999
0.91454792 0.97660136 2.3270001
0.92193532 0.9706915 2.3269999
0.9130705 0.98398858 2.3269999
0.94612569 0.72744578 2.3429999
0.95505154 0.72744578 2.3429999
0.9662087 0.72744578 2.3429999
0.97513449 0.72744578 2.3429999
0.98629153 0.72744578 2.3429999
0.99298573 0.72744578 2.3429999
1.0331515 0.72744578 2.3429999
0.91934872 0.73414004 2.3429999
0.92604285 0.73414004 2.3429999
0.93496865 0.73637152 2.3429999
0.95058858 0.73190862 2.3429999
0.9662087 0.73190862 2.3429999
0.97513449 0.73190862 2.3429999
0.98406005 0.73190862 2.3429999
0.99633288 0.7330243 2.3429999
1.0063745 0.73190862 2.3429999
1.0153005 0.73190862 2.3429999
1.0242255 0.73190862 2.3429999
1.0376145 0.73414004 2.3429999
1.0465405 0.73190862 2.3429999
0.91823298 0.74641281 2.3429999
0.92492723 0.74418139 2.3429999
0.90596002 0.75868583 2.3429999
0.91488582 0.75645435 2.3429999
0.9037286 0.76538002 2.3429999
0.91042292 0.76538002 2.3429999
0.9037286 0.7743057 2.3429999
0.91042292 0.77207428 2.3429999
0.89703429 0.78100002 2.3429999
0.90328228 0.7863555 2.3430002
0.9037286 0.79662001 2.3429999
0.90447247 0.80480194 2.3429999
0.91042292 0.80777723 2.3429999
0.90596002 0.8167029 2.3429999
0.91042292 0.81447148 2.3429999
0.90596002 0.82339716 2.3429999
0.91042292 0.82339716 2.3429999
0.90596002 0.83009148 2.3429999
0.9115386 0.83567005 2.3429999
0.92827427 0.83009148 2.3429999
0.93273723 0.83455437 2.3429999
0.90596002 0.84571147 2.3429999
0.9126544 0.84571147 2.3429999
0.91265434 0.85463721 2.3429999
0.91265434 0.86356294 2.3429999
0.91432798 0.87527788 2.3430002
0.91577846 0.88543093 2.3430002
0.91711724 0.89480293 2.3429999
0.9238115 0.89703429 2.3429999
0.91934872 0.9037286 2.3429999
0.9238115 0.9037286 2.3429999
0.9171173 0.91488588 2.3430002
0.91577846 0.92559665 2.3430002
0.9238115 0.9238115 2.3429999
0.9139933 0.93541497 2.3430002
0.9126544 0.94389427 2.3429999
0.90596002 0.95951432 2.3429999
0.91310072 0.9541589 2.3430002
0.89703429 0.9662087 2.3429999
0.9037286 0.96620864 2.3429999
0.9178611 0.96546483 2.3429999
0.92604291 0.9662087 2.3429999
0.89703429 0.97513449 2.3429999
0.90447247 0.97439069 2.3429999
0.91934872 0.97513449 2.3429999
0.92529911 0.97439069 2.3429999
0.88587725 0.98629153 2.3429999
0.89554667 0.98480386 2.3429999
0.9037286 0.98629153 2.3429999
0.9126544 0.98406005 2.3429999
0.88587725 0.99075443 2.3429999
0.9638201 0.72792011 2.359
1.02448 0.72792011 2.359
1.0379601 0.72792011 2.359
1.0447 0.72792011 2.359
0.9166401 0.73690671 2.359
0.9211334 0.73690671 2.359
0.9391067 0.73241341 2.359
0.98853338 0.73241341 2.359
1.019987 0.73241341 2.359
1.0267265 0.73241341 2.359
1.0334671 0.73241341 2.359
1.046947 0.73241341 2.359
0.9166401 0.74364674 2.359
0.9211334 0.74364674 2.359
0.91484272 0.75577873 2.359
0.9211334 0.75038671 2.359
0.90765339 0.76386672 2.359
0.9166401 0.76386672 2.359
0.90315998 0.77509999 2.359
0.90315998 0.78184009 2.359
0.90315998 0.79756665 2.359
0.90315998 0.80655336 2.359
0.90615559 0.8147912 2.359
0.91214669 0.81778681 2.359
0.90615559 0.82377785 2.359
0.90765339 0.8335135 2.359
0.90765339 0.84924012 2.359
0.91214669 0.84250009 2.359
0.90765339 0.85373342 2.359
0.91214669 0.86496675 2.359
0.90765339 0.87620008 2.359
0.91214669 0.8739534 2.359
0.90765339 0.88968003 2.359
0.91214675 0.88518667 2.359
0.90765339 0.89642 2.359
0.91439337 0.89642 2.359
0.9151423 0.90465778 2.359
0.9211334 0.90765339 2.359
0.9166401 0.91439342 2.359
0.9211334 0.91214669 2.359
0.9166401 0.92338014 2.359
0.91439342 0.93236673 2.359
0.90315998 0.96606678 2.359
0.89642 0.98853338 2.359
0.90765339 0.98628676 2.359
0.91214669 0.98853338 2.359
0.88518667 0.99527335 2.359
0.96850288 0.72864008 2.3759999
0.9730286 0.72864008 2.3759999
1.0069715 0.72864008 2.3759999
1.034126 0.72864008 2.3759999
1.04544 0.72864008 2.3759999
0.92550862 0.73769152 2.3759999
0.93456006 0.73769152 2.3759999
0.94134861 0.73769152 2.3759999
0.95266294 0.73769152 2.3759999
0.96397722 0.73316568 2.3759999
0.97755438 0.73316568 2.3759999
0.98434293 0.73316568 2.3759999
0.99339437 0.73316568 2.3759999
1.0152687 0.73467433 2.3759999
1.025074 0.73316568 2.3759999
1.036389 0.73316568 2.3759999
1.0409141 0.73316568 2.3759999
0.91721153 0.74523437 2.3759999
0.91645718 0.75353146 2.3759999
0.90966862 0.76484579 2.3759999
0.91419429 0.76258296 2.3759999
0.90966862 0.77389717 2.3759999
0.9051429 0.78747427 2.3759999
0.9066515 0.79501724 2.3759999
0.9051429 0.80331433 2.3759999
0.90514296 0.8146286 2.3759999
0.90966862 0.82367998 2.3759999
0.90966862 0.83499432 2.3759999
0.90966862 0.84404576 2.3759999
0.91419429 0.84630859 2.3759999
0.91419429 0.85083431 2.3759999
0.91570294 0.86592007 2.3759999
0.91419429 0.87572575 2.3759999
0.90966862 0.88251442 2.3759999
0.91419429 0.88704008 2.3759999
0.90966862 0.89609152 2.3759999
0.91419429 0.89156568 2.3759999
0.90966862 0.90514296 2.3759999
0.91419429 0.90966862 2.3759999
0.91721153 0.91570294 2.3759999
0.90966862 0.92324579 2.3759999
0.91645724 0.92550868 2.3759999
0.91872013 0.93229723 2.3759999
0.91872013 0.94361144 2.3759999
0.91872013 0.95492578 2.3759999
0.91645718 0.96397722 2.3759999
0.91419429 0.9730286 2.3759999
0.9051429 0.98660582 2.3759999
0.89382863 0.99565721 2.3759999
0.9051429 0.99113148 2.3759999
0.97502482 0.72671247 2.3920002
0.98641527 0.72671247 2.392
0.99552768 0.72899061 2.392
1.006918 0.72899061 2.392
1.0137525 0.72899061 2.392
1.020587 0.72899061 2.392
1.038811 0.72899061 2.392
0.92946291 0.73810291 2.392
0.93629718 0.73810291 2.392
0.9454096 0.73810291 2.392
0.95452195 0.73810291 2.392
0.96363437 0.73810291 2.392
0.97046858 0.73354667 2.392
0.98641527 0.73354667 2.392
0.99552768 0.73354667 2.392
1.0053993 0.73506546 2.392
1.0137525 0.73810291 2.392
1.025143 0.73354667 2.392
1.034255 0.73354667 2.392
0.91351622 0.74721527 2.392
0.92262864 0.74493718 2.392
1.027421 0.74265909 2.392
0.90668201 0.75177151 2.392
0.91351622 0.75404954 2.392
0.91237712 0.76430106 2.392
0.91123807 0.77683055 2.392
0.90668201 0.78594291 2.392
0.91123807 0.78594291 2.392
0.90668201 0.79505527 2.392
0.90668201 0.8018896 2.392
0.90668201 0.82467049 2.392
0.91123807 0.82922667 2.392
0.90668201 0.836061 2.392
0.91123807 0.836061 2.392
0.90668201 0.84517342 2.392
0.91123807 0.84517342 2.392
0.91275686 0.8550452 2.392
0.91579437 0.86339813 2.392
0.9139719 0.87569994 2.392
0.90668201 0.88617909 2.392
0.91123807 0.88617909 2.392
0.8975696 0.8975696 2.392
0.90516329 0.89605087 2.392
0.91351622 0.89529151 2.392
0.8975696 0.90440392 2.392
0.90440392 0.90440392 2.392
0.91123807 0.90440392 2.392
0.8975696 0.91351622 2.392
0.90440392 0.91351628 2.392
0.91123807 0.91351622 2.392
0.8975696 0.92035061 2.392
0.90485954 0.92490673 2.392
0.91306061 0.92399549 2.392
0.92035061 0.92490667 2.392
0.90668201 0.93629718 2.392
0.91351628 0.93629718 2.392
0.92035061 0.93857533 2.392
0.91351622 0.9454096 2.392
0.92035061 0.9454096 2.392
0.91351628 0.95452189 2.392
0.92035061 0.95452195 2.392
0.91579437 0.96363437 2.392
0.92035061 0.96363437 2.392
0.91579437 0.97274673 2.392
0.92262864 0.97502482 2.392
0.91123807 0.98641527 2.392
0.90440392 0.99552768 2.392
0.89301342 1.00464 2.392
0.96818858 0.72958291 2.4089999
0.97277719 0.72958291 2.4089999
0.98424864 0.72499442 2.4089999
0.99419057 0.72346491 2.4089999
1.0039797 0.7277475 2.4090002
1.0163685 0.72728866 2.4089999
1.0255461 0.72958291 2.4089999
1.034723 0.72958291 2.4089999
0.89706582 0.73876011 2.4089999
0.90624291 0.73876011 2.4089999
0.91542006 0.73876011 2.4089999
0.92459726 0.73876011 2.4089999
0.93148011 0.73876011 2.4089999
0.94983429 0.73646581 2.4089999
0.95748186 0.73723066 2.4089999
0.96665907 0.73570108 2.4089999
0.97277719 0.73646581 2.4089999
1.009486 0.73417151 2.4089999
1.034723 0.73417151 2.4089999
0.89936012 0.7433486 2.4089999
0.90624291 0.7433486 2.4089999
0.91542006 0.7456429 2.4089999
0.92459726 0.7456429 2.4089999
0.93148011 0.7433486 2.4089999
0.90853721 0.75481999 2.4089999
0.91312581 0.75252569 2.4089999
0.89936012 0.7662915 2.4089999
0.90624291 0.7639972 2.4089999
0.91312581 0.7639972 2.4089999
0.89936012 0.77546859 2.4089999
0.90624291 0.77317429 2.4089999
0.91312581 0.77317429 2.4089999
0.89821297 0.78464574 2.4089999
0.90624297 0.78464574 2.4090002
0.91312581 0.78235143 2.4089999
0.90700769 0.79535246 2.4089999
0.90853721 0.80529433 2.4089999
0.90853721 0.81447148 2.4089999
0.91312581 0.81447148 2.4089999
0.90853721 0.82364857 2.4089999
0.91312581 0.82364857 2.4089999
0.90624297 0.83512014 2.4090002
0.91312581 0.83512002 2.4089999
0.90624291 0.84659147 2.4089999
0.90624291 0.85576862 2.4089999
0.91312581 0.85806292 2.4089999
0.89936012 0.86494577 2.4089999
0.90624291 0.86494577 2.4089999
0.91465533 0.8657105 2.4089999
0.89936012 0.87641722 2.4089999
0.90624291 0.87412292 2.4089999
0.91542006 0.87412292 2.4089999
0.89936012 0.8810057 2.4089999
0.90624291 0.88330007 2.4089999
0.91312581 0.88330007 2.4089999
0.89821297 0.89591867 2.4089999
0.90624297 0.89477152 2.4090002
0.92230302 0.89018291 2.4089999
0.89706582 0.90624291 2.4089999
0.89477152 0.91542006 2.4090002
0.89477152 0.92459726 2.4090002
0.89706582 0.93377441 2.4089999
0.90547818 0.93300962 2.4089999
0.89706582 0.9406572 2.4089999
0.90624297 0.94524574 2.4090002
0.91312581 0.94983429 2.4089999
0.90624291 0.95442289 2.4089999
0.91312581 0.95671713 2.4089999
0.91465533 0.96665907 2.4089999
0.91618484 0.97583622 2.4089999
0.9177143 0.98424864 2.4089999
0.90853721 0.99342579 2.4089999
0.91312581 0.99342579 2.4089999
0.89477152 1.009486 2.4089999
0.90394861 1.0026031 2.4089999
0.89477152 1.014074 2.4089999
0.99581528 0.72548962 2.4260001
1.007368 0.72548962 2.4260001
1.0142995 0.72548962 2.4260001
1.0235405 0.72548962 2.4260001
1.030473 0.72548962 2.4260001
0.9057067 0.73935252 2.4260001
0.9172591 0.73935252 2.4260001
0.95653719 0.73473138 2.4260001
0.96346867 0.73704195 2.4260001
0.97502095 0.73242092 2.4260001
0.98426288 0.73011053 2.4260001
1.01661 0.73011053 2.4260001
0.90108579 0.74859428 2.4260001
0.94498473 0.74397337 2.4260001
0.95191622 0.74397337 2.4260001
0.97039998 0.74397337 2.4260001
0.90339625 0.75552583 2.4260001
0.91186798 0.75475568 2.4260001
0.90339625 0.76476765 2.4260001
0.91032767 0.76476765 2.4260001
0.90262616 0.77477968 2.4260001
0.91494858 0.77169907 2.4260001
0.90108579 0.7832514 2.4260001
0.90339625 0.79711437 2.4260001
0.9057067 0.80404568 2.4260001
0.91032767 0.80635619 2.4260001
0.91032767 0.81559813 2.4260001
0.91032767 0.82484007 2.4260001
0.9057067 0.8363924 2.4260001
0.91032767 0.83177149 2.4260001
0.9057067 0.84332383 2.4260001
0.9038583 0.85580045 2.4260004
0.90262616 0.86565846 2.4260001
0.89646482 0.87798101 2.4260001
0.90262616 0.8764407 2.4260001
0.89646482 0.88491243 2.4260001
0.90108579 0.88491243 2.4260001
0.89492452 0.89492452 2.4260001
0.90262616 0.89338422 2.4260001
0.89415431 0.90339625 2.4260001
0.90108579 0.90108579 2.4260001
0.89369231 0.91402447 2.4260004
0.89184391 0.92650104 2.4260001
0.89338422 0.93651313 2.4260001
0.89492452 0.94421458 2.4260001
0.90339625 0.95422673 2.4260001
0.9041664 0.96269858 2.4260001
0.91263813 0.96577913 2.4260001
0.91417837 0.97502089 2.4260004
0.91494858 0.98657334 2.4260001
0.91494864 0.99504513 2.4260001
0.9057067 1.007368 2.4260001
0.91032767 1.0027471 2.4260001
0.90339625 1.011989 2.4260001
1.00512 0.72592008 2.4430003
1.0167534 0.72592002 2.4430001
1.02606 0.72592002 2.4430001
0.92136002 0.73522669 2.4430001
0.95703554 0.73832893 2.4430003
0.96556675 0.73755336 2.4430001
0.98185343 0.73522669 2.4430001
0.99581331 0.73057342 2.4430001
0.91670668 0.74453342 2.4430001
0.93532008 0.74453342 2.4430003
0.94928002 0.74453342 2.4430001
0.95625997 0.74453342 2.4430001
0.90274668 0.7561667 2.4430001
0.90274668 0.76547337 2.4430001
0.90274668 0.77478004 2.4430001
0.90274668 0.78408664 2.4430001
0.90274668 0.79339337 2.4430001
0.90507334 0.80502671 2.4430001
0.90740001 0.81433338 2.4430001
0.91205329 0.81433338 2.4430001
0.91205329 0.82596666 2.4430001
0.90740001 0.83294672 2.4430001
0.91205329 0.83527339 2.4430001
0.90740001 0.84458005 2.4430001
0.90740001 0.85388672 2.4430001
0.90274668 0.86319339 2.4430001
0.90274668 0.87482667 2.4430003
0.89576674 0.88646001 2.4430001
0.89809328 0.89576674 2.4430001
0.89344013 0.90740001 2.4430001
0.89344013 0.91437995 2.4430001
0.89344013 0.92368674 2.4430001
0.89344013 0.93532008 2.4430003
0.89344013 0.94695336 2.4430001
0.89809328 0.95858669 2.4430001
0.90274668 0.95858669 2.4430001
0.89809328 0.96556675 2.4430001
0.90274668 0.96556675 2.4430001
0.90584892 0.97409773 2.4430003
0.91205329 0.97719997 2.4430001
0.91360444 0.98495567 2.4430003
0.91360444 0.99426222 2.4430003
0.90740001 1.0074465 2.4430001
0.91321665 1.0039568 2.4430001
0.90740001 1.0144269 2.4430001
1.014457 0.72628582 2.46
0.90902859 0.73565722 2.46
0.91371429 0.73565722 2.46
0.92464757 0.73409534 2.46
0.93479991 0.73565722 2.46
0.96525717 0.73448581 2.46
0.98868573 0.73565722 2.46
0.99571431 0.73565722 2.46
0.89965713 0.74502867 2.46
0.90668571 0.74502861 2.46
0.91558856 0.74409145 2.46
0.92464757 0.74346673 2.46
0.93479991 0.74268574 2.46
0.94417143 0.74502861 2.46
0.95354283 0.74502861 2.46
0.96057153 0.74034292 2.46
0.97697151 0.74034292 2.46
0.98400009 0.74034292 2.46
0.89731419 0.75908571 2.46
0.90590477 0.75596189 2.46
0.89965707 0.76611423 2.46
0.90434277 0.76611423 2.46
0.89965707 0.77548569 2.46
0.90434277 0.77548569 2.46
0.89731419 0.78251427 2.46
0.90434277 0.78485715 2.46
0.89965707 0.79657137 2.46
0.90434277 0.79422855 2.46
0.89965707 0.80594277 2.46
0.90434277 0.80359995 2.46
0.90590477 0.81375241 2.46
0.90902859 0.82702863 2.46
0.91527623 0.82624769 2.46
0.90746665 0.83561915 2.46
0.91371429 0.83405721 2.46
0.90746665 0.84655237 2.46
0.91371429 0.84342861 2.46
0.89965707 0.85748571 2.46
0.90668571 0.85514283 2.46
0.89965707 0.86451435 2.46
0.90590477 0.86373341 2.46
0.89731419 0.87388575 2.46
0.90434277 0.87388575 2.46
0.89731419 0.88325715 2.46
0.90434277 0.88325715 2.46
0.89614278 0.89614278 2.46
0.89809513 0.90590477 2.46
0.89340949 0.91683811 2.46
0.89497137 0.92542851 2.46
0.89497137 0.93479991 2.46
0.89497137 0.94417143 2.46
0.89497137 0.95120001 2.46
0.89965713 0.96525717 2.46
0.90434277 0.96057153 2.46
0.89965707 0.97697151 2.46
0.90434277 0.97931433 2.46
0.90668571 0.98634291 2.46
0.91371429 0.98868573 2.46
0.90668571 0.99571431 2.46
0.91371429 0.99571431 2.46
0.90668571 1.0050859 2.46
0.91371429 1.0050859 2.46
0.88403809 1.015238 2.46
0.89497137 1.0149256 2.46
0.90668571 1.014457 2.46
0.87622857 1.0238285 2.46
0.88325715 1.0238285 2.46
0.89497137 1.0238285 2.46
0.90668571 1.0238285 2.46
0.87622857 1.030857 2.46
0.88091427 1.030857 2.46
0.89965707 1.030857 2.46
0.90668571 1.030857 2.46
0.91568011 0.72688007 2.4779999
1.01952 0.72688007 2.4779999
0.89679998 0.73632002 2.4779999
0.90466666 0.73474669 2.4780002
0.91332006 0.73396003 2.4779999
0.92394006 0.73396003 2.4779999
0.93770683 0.73474669 2.4780002
0.94636005 0.73632002 2.4779999
0.95580006 0.73632002 2.4779999
0.96524 0.73396003 2.4779999
0.97468007 0.73396003 2.4779999
0.98412007 0.73632002 2.4779999
0.99356008 0.73632002 2.4779999
1.003 0.73632002 2.4779999
1.01244 0.73396003 2.4779999
0.89679998 0.7434001 2.4779999
0.90309334 0.74261343 2.4780002
0.91096002 0.74104011 2.4779999
0.92512012 0.74104011 2.4779999
0.94871998 0.7434001 2.4779999
0.95580006 0.74340004 2.4779999
0.96288002 0.74104011 2.4779999
0.98412007 0.74104011 2.4779999
0.99119997 0.74104011 2.4779999
0.88264 0.75992012 2.4779999
0.89562005 0.75638008 2.4779999
0.90270007 0.75638008 2.4779999
0.88264 0.76463997 2.4779999
0.89444005 0.76700002 2.4779999
0.90152007 0.76936013 2.4779999
0.89444005 0.77644002 2.4779999
0.90152007 0.77644002 2.4779999
0.89444005 0.78587997 2.4779999
0.90152007 0.78351998 2.4779999
0.89679998 0.79532003 2.4779999
0.90388 0.79532003 2.4779999
0.90309334 0.80554676 2.4780002
0.90309334 0.81498671 2.4780002
0.90623999 0.82128012 2.4779999
0.91332006 0.82599998 2.4779999
0.90623999 0.83543998 2.4779999
0.91096002 0.83307999 2.4779999
0.90505999 0.84606004 2.4779999
0.91096002 0.84724003 2.4779999
0.8873601 0.85431999 2.4779999
0.89444005 0.85668004 2.4779999
0.90388 0.85668004 2.4779999
0.8873601 0.8661201 2.4779999
0.89444005 0.86612004 2.4779999
0.90152007 0.8661201 2.4779999
0.8873601 0.87791997 2.4779999
0.89444005 0.87556005 2.4779999
0.90152007 0.87320012 2.4779999
0.8873601 0.88500005 2.4779999
0.89444005 0.88500005 2.4779999
0.89522672 0.89365339 2.4780002
0.89679998 0.90388 2.4779999
0.89679998 0.91096002 2.4779999
0.90152007 0.91568011 2.4779999
0.89679998 0.93692011 2.4779999
0.89679998 0.94636005 2.4779999
0.89444005 0.95580006 2.4779999
0.89679998 0.96524 2.4779999
0.90152007 0.96524 2.4779999
0.89679998 0.97468007 2.4779999
0.90152007 0.97468007 2.4779999
0.90152007 0.98412007 2.4779999
0.90388 0.99356008 2.4779999
0.90388 1.003 2.4779999
0.87556005 1.01952 2.4779999
0.88500005 1.0171599 2.4779999
0.89522672 1.0132267 2.4780002
0.90340805 1.0138559 2.4779999
0.87556005 1.0266 2.4779999
0.88264 1.02424 2.4779999
0.90152007 1.02896 2.4779999
0.87791997 1.0360401 2.4779999
0.90152007 1.03368 2.4779999
0.91757709 0.72740573 2.4960001
0.92233139 0.72740573 2.4960001
0.90569144 0.73691428 2.4960001
0.91519994 0.73215997 2.4960001
0.95323437 0.73691428 2.4960001
0.96416914 0.73406166 2.4960001
0.97700572 0.73215997 2.4960001
0.98572195 0.73532951 2.4960001
0.99602282 0.73691428 2.4960001
1.003154 0.73691428 2.4960001
0.88905138 0.74642289 2.4960001
0.89618284 0.74404573 2.4960001
0.88905138 0.75117707 2.4960001
0.89618284 0.75355422 2.4960001
0.89539045 0.76227045 2.4960001
0.88746661 0.77811807 2.4960001
0.89380568 0.7749486 2.4960001
0.88905138 0.78683424 2.4960001
0.89380568 0.78683424 2.4960001
0.88746661 0.79555053 2.4960001
0.89539045 0.79713523 2.4960001
0.89618284 0.80347431 2.4960001
0.90331429 0.80822861 2.4960001
0.90331429 0.81773722 2.4960001
0.90569144 0.82724571 2.4960001
0.90569144 0.83437717 2.4960001
0.91282278 0.83437717 2.4960001
0.89618284 0.84626281 2.4960001
0.90569144 0.84388578 2.4960001
0.88667423 0.85577142 2.4960001
0.89697522 0.85418671 2.4960001
0.90489906 0.85260189 2.4960001
0.88667423 0.86290282 2.4960001
0.89380568 0.86527997 2.4960001
0.8878628 0.87360001 2.4960001
0.89380568 0.87954289 2.4960001
0.88905138 0.88667423 2.4960001
0.88905138 0.89380568 2.4960001
0.89618284 0.90569144 2.4960001
0.89618284 0.91519994 2.4960001
0.89697522 0.92550099 2.4960001
0.90331429 0.92470855 2.4960001
0.89618284 0.93421715 2.4960001
0.90331429 0.93659431 2.4960001
0.88905138 0.94134861 2.4960001
0.89618284 0.94372576 2.4960001
0.89618284 0.95323437 2.4960001
0.87954289 0.96987432 2.4960001
0.88667417 0.96512002 2.4960003
0.89499426 0.96630859 2.4960001
0.88667423 0.97462863 2.4960001
0.89618284 0.97700572 2.4960001
0.89855999 0.98413712 2.4960001
0.90331429 0.98889148 2.4960001
0.89855999 0.99364573 2.4960001
0.90331429 0.99602282 2.4960001
0.89855999 1.0055315 2.4960001
0.90331429 1.0055315 2.4960001
0.88905138 1.017417 2.4960001
0.89855999 1.0150399 2.4960001
0.90331429 1.012663 2.4960001
0.87478858 1.0245485 2.4960001
0.88429707 1.022171 2.4960001
0.87241143 1.034057 2.4960001
0.87478864 1.0435661 2.4960003
0.92658859 0.72786289 2.5139999
0.89546287 0.73743999 2.5139999
0.9098286 0.73743999 2.5139999
0.91621339 0.73424768 2.5139999
0.93696392 0.73584384 2.5139999
0.94334859 0.73504573 2.5139999
0.95532012 0.73743999 2.5139999
0.96489716 0.73504573 2.5139999
0.97447437 0.73265147 2.5139999
0.98165733 0.73265147 2.5139999
0.99442673 0.73424768 2.5139999
1.0024074 0.73584384 2.5139999
0.88588578 0.74701709 2.5139999
0.89386672 0.74542093 2.5139999
0.90264571 0.74222863 2.5139999
0.93856013 0.74222863 2.5139999
0.94813722 0.74222863 2.5139999
0.89067441 0.7542001 2.5139999
0.87630862 0.76617151 2.5139999
0.88269341 0.76457536 2.5139999
0.89386672 0.76457536 2.5139999
0.88428962 0.77415246 2.5139999
0.89067441 0.77335429 2.5139999
0.88588578 0.78293151 2.5139999
0.89067441 0.78053719 2.5139999
0.88468862 0.79370582 2.5139999
0.89067441 0.7925086 2.5139999
0.88588578 0.80687428 2.5139999
0.89227057 0.80767244 2.5139999
0.88588578 0.81405717 2.5139999
0.89306867 0.81405717 2.5139999
0.90504003 0.81565344 2.5139999
0.9098286 0.8284229 2.5139999
0.89227057 0.83480775 2.5139999
0.88588578 0.8451829 2.5139999
0.89306867 0.8451829 2.5139999
0.90264571 0.8451829 2.5139999
0.88588578 0.85476011 2.5139999
0.89306861 0.85476011 2.5139999
0.90025139 0.85715443 2.5139999
0.88349152 0.86433721 2.5139999
0.88588578 0.8739143 2.5139999
0.89067441 0.88349152 2.5139999
0.89067441 0.89306867 2.5139999
0.89306861 0.90504003 2.5139999
0.90025139 0.90504003 2.5139999
0.89306867 0.9170115 2.5139999
0.89306861 0.92658859 2.5139999
0.90025139 0.92898291 2.5139999
0.89306867 0.93616581 2.5139999
0.89227057 0.9449448 2.5139999
0.88428962 0.96409911 2.5139999
0.88349152 0.97447437 2.5139999
0.88349146 0.98405153 2.5139999
0.89306867 0.98644578 2.5139999
0.89306867 0.9912343 2.5139999
0.9018476 0.99442673 2.5139999
0.89546287 1.0032055 2.5139999
0.9018476 1.0040038 2.5139999
0.86194289 1.019966 2.5139999
0.87630862 1.019966 2.5139999
0.88349152 1.019966 2.5139999
0.89546287 1.0151775 2.5139999
0.90025139 1.0151774 2.5139999
0.87471241 1.0279467 2.5139999
0.88349152 1.024754 2.5139999
0.89067441 1.024754 2.5139999
0.90025139 1.024754 2.5139999
0.86513537 1.035928 2.5139999
0.87151998 1.036726 2.5139999
0.87151998 1.043909 2.5139999
0.92598861 0.7282514 2.5320001
0.93322289 0.7282514 2.5320001
0.94045722 0.7282514 2.5320001
0.95010293 0.7282514 2.5320001
0.88740569 0.7378971 2.5320001
0.89544392 0.7362895 2.5320001
0.90348196 0.7362895 2.5320001
0.91473532 0.7362895 2.5320001
0.92357719 0.73307431 2.5320001
0.94206476 0.73468196 2.5320001
0.95589036 0.73500341 2.5320001
0.9669829 0.73548573 2.5320001
0.9766286 0.73307431 2.5320001
0.9862743 0.73307431 2.5320001
0.99592006 0.73548567 2.5320001
1.0055655 0.73307431 2.5320001
0.87775999 0.74513149 2.5320001
0.88499427 0.74513149 2.5320001
0.89464009 0.74513149 2.5320001
0.90669721 0.74272001 2.5320001
0.91152 0.74272001 2.5320001
0.95492572 0.74272001 2.5320001
0.87775999 0.75236571 2.5320001
0.88499427 0.75477719 2.5320001
0.8922286 0.75718862 2.5320001
0.86811429 0.76683432 2.5320001
0.87534857 0.76442283 2.5320001
0.8841905 0.76361907 2.5320001
0.89383626 0.76522672 2.5320001
0.87534857 0.77406859 2.5320001
0.88499427 0.77648002 2.5320001
0.87534857 0.78371429 2.5320001
0.8841905 0.78451812 2.5320001
0.87775999 0.79335999 2.5320001
0.8841905 0.79255623 2.5320001
0.87775999 0.8030057 2.5320001
0.88499427 0.8030057 2.5320001
0.87655431 0.81626856 2.5320001
0.88499439 0.81506288 2.5320001
0.87775999 0.82711995 2.5320001
0.88499427 0.82712001 2.5320001
0.89464009 0.82712001 2.5320001
0.90428579 0.82712001 2.5320001
0.91152 0.82711995 2.5320001
0.87775999 0.83435428 2.5320001
0.88499427 0.83676571 2.5320001
0.89383626 0.83596194 2.5320001
0.90508962 0.83596194 2.5320001
0.91152 0.83676577 2.5320001
0.87775999 0.84399998 2.5320001
0.88499427 0.84641147 2.5320001
0.8922286 0.84399998 2.5320001
0.90348196 0.84560764 2.5320001
0.91152 0.84399998 2.5320001
0.88499427 0.85605711 2.5320001
0.89705151 0.85364568 2.5320001
0.8841905 0.86489904 2.5320001
0.8841905 0.8761524 2.5320001
0.88499427 0.88499427 2.5320001
0.8922286 0.88740569 2.5320001
0.88499427 0.89464009 2.5320001
0.8922286 0.89464009 2.5320001
0.88499427 0.90428579 2.5320001
0.8922286 0.90428579 2.5320001
0.88499427 0.91393149 2.5320001
0.89383626 0.91473532 2.5320001
0.88740569 0.92357719 2.5320001
0.89383626 0.92277336 2.5320001
0.9018743 0.92598861 2.5320001
0.88579816 0.93402672 2.5320001
0.8922286 0.93322289 2.5320001
0.87775999 0.94286859 2.5320001
0.88499427 0.94286859 2.5320001
0.8922286 0.94286859 2.5320001
0.87775999 0.95733714 2.5320001
0.88499421 0.95492578 2.5320001
0.89383626 0.95492578 2.5320001
0.9018743 0.95974863 2.5320001
0.8841905 0.96617907 2.5320001
0.89705151 0.9669829 2.5320001
0.9018743 0.9669829 2.5320001
0.88499427 0.9766286 2.5320001
0.8825829 0.9862743 2.5320001
0.8841905 0.99672389 2.5320001
0.8922286 0.99833149 2.5320001
0.88499427 1.0055655 2.5320001
0.89464009 1.0055655 2.5320001
0.9018743 1.003154 2.5320001
0.86570287 1.0176229 2.5320001
0.87534857 1.0176229 2.5320001
0.88499427 1.0152115 2.5320001
0.89464009 1.0152115 2.5320001
0.85846859 1.027269 2.5320001
0.86489904 1.0240538 2.5320001
0.87534857 1.0248575 2.5320001
0.88499427 1.022446 2.5320001
0.89544392 1.0240538 2.5320001
0.85846859 1.036914 2.5320001
0.86570287 1.0345025 2.5320001
0.8745448 1.0336988 2.5320001
0.85605717 1.0441484 2.5320001
0.86489904 1.0449524 2.5320001
0.85846859 1.0537945 2.5320001
0.86570281 1.0537945 2.5320001
0.8745448 1.0545983 2.5320001
0.87534857 1.061029 2.5320001
0.92564857 0.72885722 2.5510001
0.9345569 0.72723758 2.5510001
0.94508487 0.72885722 2.5510001
0.95480287 0.72885722 2.5510001
0.87948757 0.73857528 2.5510001
0.88677621 0.73857528 2.5510001
0.89649433 0.73857528 2.5510001
0.91512072 0.73695558 2.5510001
0.92564857 0.73371619 2.5510001
0.95237339 0.73371619 2.5510001
0.96452093 0.73371619 2.5510001
0.97423917 0.73371619 2.5510001
0.98395717 0.73371619 2.5510001
0.99124581 0.73371619 2.5510001
1.0033935 0.73614573 2.5510001
0.86976957 0.74829328 2.5510001
0.87948757 0.7458638 2.5510001
0.88677621 0.74343431 2.5510001
0.86976957 0.75558197 2.5510001
0.87705809 0.75558197 2.5510001
0.86814994 0.76610988 2.5510001
0.8762483 0.76449013 2.5510001
0.88434672 0.76287049 2.5510001
0.86814994 0.77420831 2.5510001
0.8746286 0.7774477 2.5510001
0.86976957 0.78473628 2.5510001
0.8746286 0.78473628 2.5510001
0.86976957 0.79202479 2.5510001
0.8762483 0.79526418 2.5510001
0.87786794 0.80336255 2.5510001
0.87786794 0.81470048 2.5510001
0.8762483 0.82279885 2.5510001
0.86976957 0.83575618 2.5510001
0.87705809 0.8333267 2.5510001
0.86976957 0.84304476 2.5510001
0.87705809 0.84304476 2.5510001
0.88434672 0.8454743 2.5510001
0.86976957 0.85033327 2.5510001
0.87705809 0.85276288 2.5510001
0.88434672 0.85519242 2.5510001
0.87948763 0.86491054 2.5510001
0.88434672 0.86491054 2.5510001
0.87948757 0.87705809 2.5510001
0.88434672 0.87705809 2.5510001
0.87948757 0.88920569 2.5510001
0.88434672 0.88677621 2.5510001
0.87948757 0.89649433 2.5510001
0.88434672 0.89649433 2.5510001
0.87948757 0.9037829 2.5510001
0.88434672 0.90621239 2.5510001
0.87948757 0.91593051 2.5510001
0.88434672 0.91593051 2.5510001
0.87948757 0.92564857 2.5510001
0.88596642 0.92645848 2.5510001
0.87948757 0.93536669 2.5510001
0.88677621 0.93536669 2.5510001
0.87705809 0.94508493 2.5510001
0.88434672 0.94265532 2.5510001
0.87705809 0.95480293 2.5510001
0.88434672 0.95723242 2.5510001
0.86976957 0.96209139 2.5510001
0.87705809 0.96452093 2.5510001
0.89892387 0.96695048 2.5510001
0.87705809 0.97423923 2.5510001
0.88434672 0.97423917 2.5510001
0.89892387 0.97180963 2.5510001
0.87948757 0.98638672 2.5510001
0.88434672 0.98395717 2.5510001
0.88434672 0.99610478 2.5510001
0.88434672 1.0033935 2.5510001
0.86976957 1.015541 2.5510001
0.87705809 1.0131115 2.5510001
0.88434672 1.0131115 2.5510001
0.86976957 1.0204 2.5510001
0.87705809 1.0204 2.5510001
0.88434672 1.0204 2.5510001
0.85519242 1.0374064 2.5510001
0.86199516 1.034977 2.5510004
0.8454743 1.0471245 2.5510001
0.85357273 1.0479344 2.5510001
0.86005151 1.044695 2.5510001
0.84385461 1.0560327 2.5510001
0.85276282 1.0568424 2.5510001
0.86005151 1.0592721 2.5510001
0.8454743 1.064131 2.5510001
0.85276282 1.064131 2.5510001
0.86005151 1.064131 2.5510001
0.93662232 0.72612703 2.5700002
0.94722867 0.7293905 2.5699999
0.88603818 0.73918098 2.5699999
0.89338094 0.73918098 2.5699999
0.90317148 0.73918098 2.5699999
0.91296196 0.73918098 2.5699999
0.92519999 0.73918098 2.5699999
0.96925718 0.73428577 2.5699999
0.97660005 0.73428577 2.5699999
0.98394293 0.73428577 2.5699999
0.88114291 0.74652386 2.5699999
0.88114291 0.75386667 2.5699999
0.86645722 0.76855242 2.5699999
0.87135237 0.76610482 2.5699999
0.86645722 0.7758953 2.5699999
0.86645722 0.78568578 2.5699999
0.87135237 0.78568578 2.5699999
0.86645722 0.79302859 2.5699999
0.87135237 0.79547626 2.5699999
0.87461585 0.80445087 2.5700002
0.88114291 0.81505722 2.5699999
0.87461585 0.82566351 2.5700002
0.87379998 0.83463812 2.5699999
0.86645722 0.8444286 2.5699999
0.87135237 0.8444286 2.5699999
0.86645722 0.85177147 2.5699999
0.87135237 0.85421908 2.5699999
0.87624758 0.86400962 2.5699999
0.88114291 0.86645722 2.5699999
0.88114291 0.87379998 2.5699999
0.88114291 0.88359058 2.5699999
0.88359058 0.89338094 2.5699999
0.88114291 0.90317148 2.5699999
0.88359058 0.91296196 2.5699999
0.88114291 0.92275238 2.5699999
0.88114297 0.93499058 2.5700002
0.87379998 0.94722861 2.5699999
0.88114291 0.94478101 2.5699999
0.87379998 0.95701909 2.5699999
0.87298411 0.96599376 2.5700002
0.87624758 0.97660005 2.5699999
0.88359058 0.98883808 2.5699999
0.88359058 0.99618095 2.5699999
0.89093328 0.99862862 2.5699999
0.88603818 1.0059714 2.5699999
0.87624758 1.0157621 2.5699999
0.88603818 1.013314 2.5699999
0.87135237 1.0255525 2.5699999
0.84524453 1.036159 2.5700002
0.85340327 1.036159 2.5700002
0.86400962 1.0353429 2.5699999
0.87135237 1.032895 2.5699999
0.8468762 1.0451335 2.5699999
0.85421908 1.0451335 2.5699999
0.8468762 1.0549235 2.5699999
0.85666668 1.052476 2.5699999
0.93697149 0.72985148 2.589
0.95176578 0.72985148 2.589
0.89505434 0.7372486 2.589
0.90573919 0.73807049 2.5890002
0.91478014 0.73971432 2.589
0.92464292 0.73971432 2.589
