# .PCD v0.7 - Point Cloud Data file format
VERSION 0.7
FIELDS x y z
SIZE 4 4 4
TYPE F F F
COUNT 1 1 1
WIDTH 1049
HEIGHT 1
VIEWPOINT 0 0 0 1 0 0 0
POINTS 1049
DATA ascii
1.1445451 0.82639337 2.1010001
1.1545501 0.82839429 2.1010001
1.1445451 0.83239621 2.1010001
1.1545501 0.83239621 2.1010001
1.1545501 0.84640288 2.1010001
1.1445451 0.85480684 2.1010001
1.1545501 0.85440665 2.1010001
1.145879 0.86307758 2.1010001
1.1545501 0.86441147 2.1010001
1.1455455 0.8754167 2.1010001
1.1545501 0.87441617 2.1010001
1.1445451 0.88442093 2.1010001
1.1545501 0.88442099 2.1010001
1.1485471 0.89242482 2.1010001
1.1545501 0.89242482 2.1010001
1.1516269 0.83754659 2.1140001
1.139547 0.84560001 2.1140001
1.1455865 0.84358668 2.1140001
1.1551501 0.84509671 2.1140001
1.163707 0.84358668 2.1140001
1.139547 0.85365337 2.1140001
1.143573 0.85365337 2.1140001
1.1529691 0.85499561 2.1140001
1.1449153 0.89660448 2.1140001
1.1516269 0.89794672 2.1140001
1.1455865 0.90398669 2.1140001
1.1556534 0.90398669 2.1140003
1.163707 0.90398669 2.1140001
1.1455865 0.91002673 2.1140001
1.1556534 0.91002673 2.1140001
1.163707 0.91002673 2.1140001
1.142503 0.90752012 2.1270001
1.142503 0.91359711 2.1270001
1.135219 0.90695238 2.1400001
1.133181 0.91510481 2.1400001
1.133181 0.92121911 2.1400001
1.131863 0.8899067 2.1530001
1.131863 0.89605814 2.1530001
1.135964 0.9063105 2.1530001
1.140065 0.9063105 2.1530001
1.1339135 0.9145124 2.1530001
1.140065 0.9145124 2.1530001
1.135964 0.92476475 2.1530001
1.130968 0.80901343 2.1670001
1.130968 0.83790672 2.1670001
1.130968 0.84203428 2.1670001
1.130968 0.8647362 2.1670001
1.130968 0.87299144 2.1670001
1.130968 0.88537431 2.1670001
1.1337193 0.89569342 2.1670003
1.137159 0.90601236 2.1670001
1.136471 0.91357964 2.1670003
1.136471 0.92458671 2.1670003
1.139223 0.9328419 2.1670001
1.13412 0.73530853 2.181
1.138274 0.8183943 2.181
1.138274 0.83708858 2.181
1.13412 0.84747428 2.181
1.13412 0.85578287 2.181
1.138274 0.90355718 2.181
1.142429 0.91394287 2.181
1.138274 0.92640573 2.181
1.142429 0.93679142 2.181
1.14088 0.73342288 2.194
1.14088 0.74596006 2.194
1.145059 0.75431812 2.194
1.145059 0.76267618 2.194
1.145059 0.78148192 2.194
1.14088 0.8023771 2.194
1.14088 0.81073523 2.194
1.145059 0.82745141 2.194
1.145059 0.83372003 2.194
1.14088 0.84625715 2.194
1.136701 0.86506277 2.194
1.14088 0.86924189 2.194
1.14088 0.88386858 2.194
1.14088 0.89431614 2.194
1.145059 0.91521138 2.194
1.145059 0.92565906 2.194
1.145059 0.93610662 2.194
1.145059 0.94237518 2.194
1.14816 0.7317943 2.2079999
1.143954 0.74441147 2.2079999
1.1453561 0.75562668 2.2079999
1.14816 0.76543999 2.2079999
1.152366 0.77595437 2.2079999
1.152366 0.78226292 2.2079999
1.14816 0.79908568 2.2079999
1.146057 0.80539435 2.2079999
1.146057 0.81380582 2.2079999
1.14816 0.82432008 2.2079999
1.14816 0.83273149 2.2079999
1.1467581 0.84534872 2.2079999
1.143954 0.85586298 2.2079999
1.1397491 0.86637717 2.2079999
1.143954 0.86427432 2.2079999
1.1397491 0.87478858 2.2079999
1.1453561 0.87759244 2.2079999
1.1453561 0.88460201 2.2079999
1.1397491 0.89161152 2.2079999
1.143954 0.89371437 2.2079999
1.1397491 0.90212578 2.2079999
1.1453561 0.90422863 2.2079999
1.14816 0.91474295 2.2079999
1.14816 0.92525721 2.2079999
1.14816 0.93577147 2.2079999
1.14816 0.94418293 2.2079999
1.14816 0.95049149 2.2079999
1.160194 0.71559429 2.223
1.15596 0.73253143 2.223
1.147491 0.74735147 2.223
1.151726 0.741 2.223
1.122086 0.75582004 2.223
1.1460798 0.75652575 2.223
1.147491 0.76428854 2.223
1.151726 0.7664057 2.223
1.147491 0.77064002 2.223
1.1527845 0.77593285 2.223
1.1538429 0.78334278 2.223
1.15596 0.79392862 2.223
1.1531373 0.80451429 2.223
1.147491 0.81298292 2.223
1.151726 0.81721711 2.223
1.1390229 0.82991999 2.223
1.1457975 0.82653254 2.223
1.151726 0.82780284 2.223
1.1164397 0.83556569 2.223
1.147491 0.83627141 2.223
1.151726 0.83627141 2.223
1.117851 0.84473997 2.223
1.124203 0.84685707 2.223
1.1531374 0.84403431 2.223
1.115734 0.8553257 2.223
1.1231445 0.85426712 2.223
1.1358472 0.85214996 2.223
1.1453741 0.8553257 2.223
1.151726 0.85109138 2.223
1.1164397 0.86520576 2.223
1.124203 0.86591148 2.223
1.1369059 0.86379433 2.223
1.1453741 0.86591148 2.223
1.117851 0.87437999 2.223
1.1234974 0.87367433 2.223
1.1358472 0.87332147 2.223
1.1446683 0.87508571 2.223
1.1390231 0.88496578 2.223
1.1460798 0.88778865 2.223
1.1369059 0.89555132 2.223
1.1446683 0.89484566 2.223
1.1369059 0.90402007 2.223
1.1446683 0.90331435 2.223
1.1153105 0.9154526 2.223
1.1234974 0.91742867 2.223
1.1347888 0.91319436 2.223
1.143257 0.91037142 2.223
1.151726 0.91672289 2.223
1.1150284 0.9244858 2.223
1.151726 0.92519146 2.223
1.1164397 0.93436575 2.223
1.122086 0.93366003 2.223
1.15596 0.93154281 2.223
1.160194 0.93154281 2.223
1.1146755 0.94318712 2.223
1.1249087 0.94424576 2.223
1.130554 0.9442457 2.223
1.1460798 0.94706869 2.223
1.151726 0.94636291 2.223
1.117851 0.95483148 2.223
1.122086 0.95483148 2.223
1.1453741 0.95483148 2.223
1.151726 0.95483148 2.223
1.16324 0.7243619 2.237
1.1589791 0.73714483 2.237
1.1240393 0.74822325 2.237
1.1355435 0.74992758 2.237
1.1538658 0.74481452 2.237
1.116369 0.75844949 2.237
1.1291521 0.7541886 2.237
1.1355435 0.75631905 2.237
1.1447757 0.75702924 2.237
1.150457 0.75631905 2.237
1.1238263 0.76590621 2.237
1.1355435 0.76484096 2.237
1.1440655 0.76484096 2.237
1.150457 0.76697141 2.237
1.1257435 0.77293676 2.237
1.1355435 0.77336287 2.237
1.1451308 0.77442813 2.237
1.1515223 0.77655852 2.237
1.146196 0.78614569 2.237
1.1525875 0.78614569 2.237
1.1589791 0.79466766 2.237
1.16324 0.79253721 2.237
1.1555703 0.80617219 2.237
1.146196 0.81810278 2.237
1.1518774 0.8152622 2.237
1.116369 0.82662481 2.237
1.120631 0.82662481 2.237
1.133413 0.82236379 2.237
1.1440655 0.8244943 2.237
1.1518774 0.82378411 2.237
1.1142391 0.83514678 2.237
1.1255002 0.83392936 2.237
1.1351174 0.83599895 2.237
1.1436394 0.83514661 2.237
1.150457 0.83940762 2.237
1.114949 0.8450889 2.237
1.1248915 0.84579897 2.237
1.1355435 0.84579897 2.237
1.1440655 0.84579903 2.237
1.1518774 0.84650916 2.237
1.116369 0.85432088 2.237
1.120631 0.85219038 2.237
1.137674 0.85219038 2.237
1.1440655 0.85219038 2.237
1.1525875 0.85219038 2.237
1.1359695 0.86412108 2.237
1.1433554 0.86355299 2.237
1.116369 0.87775618 2.237
1.120631 0.87562573 2.237
1.137674 0.87349522 2.237
1.1440655 0.87349522 2.237
1.114949 0.8834374 2.237
1.1248914 0.88485777 2.237
1.1355435 0.88414758 2.237
1.141935 0.88414758 2.237
1.150457 0.88627809 2.237
1.114239 0.89053899 2.237
1.1270216 0.89266944 2.237
1.1366087 0.89373469 2.237
1.141935 0.89479989 2.237
1.150457 0.89053899 2.237
1.114949 0.9061625 2.237
1.1291521 0.92888761 2.237
1.133413 0.92888761 2.237
1.1547182 0.92462671 2.237
1.1248914 0.93456888 2.237
1.154718 0.93527901 2.237
1.133413 0.94380093 2.237
1.1589791 0.94380093 2.237
1.133413 0.95871431 2.237
1.133413 0.96297532 2.237
1.1710401 0.7163505 2.2520001
1.119566 0.72707427 2.2520001
1.123855 0.72492951 2.2520001
1.1646055 0.72921908 2.2520001
1.1710401 0.72278482 2.2520001
1.1152763 0.7356534 2.2520001
1.1259999 0.7356534 2.2520001
1.132434 0.73779821 2.2520001
1.158172 0.7356534 2.2520001
1.1646055 0.7356534 2.2520001
1.1259999 0.74423242 2.2520001
1.1345789 0.74423242 2.2520001
1.1453028 0.74530482 2.2520001
1.158172 0.74423242 2.2520001
1.162461 0.7420876 2.2520001
1.136724 0.75066668 2.2520001
1.1470184 0.75324041 2.2520001
1.153882 0.75281143 2.2520001
1.1152765 0.77425903 2.2520001
1.123855 0.77640378 2.2520001
1.128145 0.78069341 2.2520001
1.135294 0.78641272 2.2520003
1.1459156 0.78620851 2.2520001
1.149592 0.79356188 2.2520001
1.1560271 0.79785138 2.2520001
1.162461 0.79785138 2.2520001
1.136724 0.80428576 2.2520001
1.1461606 0.80385685 2.2520001
1.1560271 0.80428576 2.2520001
1.162461 0.80428576 2.2520001
1.1152763 0.81572455 2.2520001
1.1259999 0.8192991 2.2520001
1.1356515 0.81500947 2.2520001
1.1453028 0.81500953 2.2520001
1.1549546 0.81393713 2.2520001
1.119566 0.82573336 2.2520001
1.1259999 0.82573336 2.2520001
1.1345789 0.8257333 2.2520001
1.1453028 0.82466096 2.2520001
1.119566 0.83216769 2.2520001
1.1345789 0.83216769 2.2520001
1.1438731 0.83359754 2.2520003
1.1138467 0.86362422 2.2520003
1.1145614 0.87649286 2.2520001
1.123855 0.87935251 2.2520001
1.1142039 0.88471437 2.2520001
1.1142039 0.89329338 2.2520001
1.128145 0.89436573 2.2520001
1.149592 0.89651048 2.2520001
1.1158124 0.90455329 2.2520001
1.126429 0.90423167 2.2520001
1.1345789 0.90723431 2.2520001
1.141013 0.90508956 2.2520003
1.1174209 0.91795808 2.2520001
1.128145 0.91366857 2.2520001
1.1345789 0.91581333 2.2520001
1.141013 0.91795808 2.2520001
1.119566 0.92224759 2.2520001
1.1345789 0.92224759 2.2520001
1.1442304 0.92546481 2.2520001
1.1560271 0.92653722 2.2520001
1.1467326 0.93654603 2.2520001
1.155598 0.93425828 2.2520001
1.1453028 0.94476771 2.2520001
1.158172 0.94369531 2.2520001
1.162461 0.94798481 2.2520001
1.145303 0.95227432 2.2520001
1.158172 0.95656377 2.2520001
1.162461 0.95227432 2.2520001
1.145303 0.96514291 2.2520003
1.169688 0.71432948 2.266
1.174004 0.71432948 2.266
1.1157351 0.72512001 2.266
1.124368 0.72512001 2.266
1.1342949 0.72598326 2.266
1.1459485 0.72943622 2.266
1.1545811 0.72943622 2.266
1.165988 0.72635323 2.266
1.174004 0.72512001 2.2660003
1.1150157 0.73519111 2.2660003
1.12221 0.73375243 2.266
1.136237 0.73483145 2.266
1.1452291 0.73662984 2.2660003
1.1545811 0.73591048 2.266
1.1624937 0.73519111 2.2660003
1.113577 0.74238479 2.266
1.1466681 0.74382353 2.2660003
1.1553004 0.74382353 2.2660003
1.161055 0.74454284 2.266
1.113577 0.75101721 2.266
1.161055 0.75101721 2.266
1.1157351 0.78123039 2.266
1.1236486 0.78410792 2.2660003
1.1329999 0.78770483 2.266
1.139474 0.79417902 2.266
1.1459485 0.79849517 2.266
1.152423 0.79849517 2.266
1.139474 0.80712759 2.266
1.1459485 0.80281138 2.266
1.1545811 0.80281138 2.266
1.1157351 0.81144381 2.266
1.124368 0.81360197 2.266
1.1360213 0.81403363 2.266
1.1481071 0.81144381 2.266
1.1351579 0.82151496 2.2660003
1.109261 0.88481903 2.2660003
1.1481071 0.9193486 2.266
1.152423 0.91719049 2.266
1.152423 0.92582285 2.266
1.161055 0.94956201 2.266
1.156739 0.95603621 2.266
1.163213 0.95603621 2.266
1.156739 0.96466863 2.266
1.161055 0.96466863 2.266
1.156739 0.97330099 2.266
1.161055 0.97330099 2.266
1.177431 0.70819622 2.2809999
1.181775 0.70819622 2.2809999
1.138328 0.71688569 2.2809999
1.1448445 0.71688569 2.2809999
1.1513619 0.71688569 2.2809999
1.168741 0.71688569 2.2809999
1.1745343 0.71398926 2.2809999
1.181775 0.71254098 2.2809999
1.1144315 0.72557533 2.2809999
1.1252933 0.72340298 2.2810001
1.1354313 0.72267884 2.2809999
1.145279 0.72470635 2.2809999
1.1535344 0.72557533 2.2810001
1.163853 0.72503221 2.2809999
1.173086 0.72340292 2.2809999
1.116604 0.73426479 2.2809999
1.1252934 0.73426479 2.2809999
1.155707 0.73860961 2.2809999
1.116604 0.74295431 2.2809999
1.1064661 0.79653978 2.2809999
1.1155177 0.79509151 2.2809999
1.1247501 0.79563457 2.2809999
1.1361555 0.79726386 2.2809999
1.1426719 0.79943627 2.2809999
1.105742 0.80595332 2.2809999
1.1144315 0.80595332 2.2809999
1.1252933 0.80595338 2.2810001
1.133983 0.80595332 2.2809999
1.1455687 0.80522919 2.2809999
1.105742 0.8124705 2.2809999
1.116604 0.8124705 2.2809999
1.1252934 0.81247056 2.2809999
1.1368797 0.81391877 2.2809999
1.1426719 0.8124705 2.2809999
1.146312 0.71753907 2.2969999
1.155063 0.71753907 2.2969999
1.1660011 0.71753907 2.2969999
1.1754807 0.71608067 2.2969999
1.181314 0.71316391 2.2969999
1.1134984 0.72628957 2.2969999
1.1244361 0.72483122 2.2969999
1.1353745 0.72191441 2.2969999
1.141937 0.72191441 2.2969999
1.1660011 0.72191441 2.2969999
1.172564 0.72191441 2.2969999
1.106935 0.80723149 2.2969999
1.111311 0.80504388 2.2969999
1.120061 0.80504388 2.2969999
1.146312 0.8094191 2.2969999
1.10256 0.81816959 2.2969999
1.146312 0.81379431 2.2969999
1.1506881 0.81379431 2.2969999
1.156 0.717821 2.312
1.1648076 0.717821 2.312
1.173615 0.717821 2.312
1.1846249 0.71561909 2.312
1.195634 0.71341717 2.312
1.10976 0.7266286 2.312
1.1156319 0.72516072 2.312
1.1229711 0.7266286 2.312
1.136183 0.72222477 2.312
1.1449904 0.72222477 2.312
1.105356 0.73103237 2.312
1.114164 0.73103237 2.312
1.107558 0.81580573 2.312
1.114164 0.81910861 2.312
1.196743 0.70918101 2.3269999
1.201175 0.70918101 2.3269999
1.156852 0.71804577 2.3269999
1.1635001 0.71804577 2.3269999
1.1745811 0.71804583 2.3270001
1.1849234 0.71656835 2.3270001
1.1937877 0.71509093 2.3270001
1.201175 0.71361339 2.3269999
1.1154827 0.72543305 2.3270001
1.1243474 0.72395563 2.3270001
1.1346898 0.72469437 2.3269999
1.1457705 0.72247821 2.3269999
1.1538967 0.72395563 2.3270001
1.1051404 0.73282039 2.3270001
1.112528 0.73134291 2.3269999
1.136906 0.73134291 2.3269999
1.1848885 0.70959431 2.3429999
1.1938145 0.70959431 2.3429999
1.2060874 0.70847857 2.3429999
1.12464 0.71851999 2.3429999
1.1536485 0.71851999 2.3429999
1.1648061 0.71852005 2.3429999
1.1759624 0.71628857 2.3429999
1.1848885 0.71628857 2.3429999
1.1945584 0.71554482 2.3429999
1.200509 0.71405721 2.3429999
1.115714 0.72744578 2.3429999
1.1235242 0.72409862 2.3429999
1.1357975 0.72298288 2.3429999
1.1447225 0.72298288 2.3429999
1.1536485 0.72298288 2.3429999
1.1603431 0.72298288 2.3429999
1.0956315 0.73637152 2.3429999
1.1045575 0.73190862 2.3429999
1.1134825 0.73190862 2.3429999
1.19972 0.70994681 2.359
1.208707 0.70994681 2.359
1.2132 0.70994681 2.359
1.1592799 0.7189334 2.359
1.1660199 0.7189334 2.359
1.1750065 0.7189334 2.359
1.1839935 0.71443999 2.359
1.114347 0.72792011 2.359
1.141307 0.72342682 2.359
1.1076065 0.73466003 2.359
1.1165935 0.73241341 2.359
1.1834741 0.71958858 2.3759999
1.199314 0.71506292 2.3759999
1.20384 0.71506292 2.3759999
1.2128921 0.71506292 2.3759999
1.226469 0.71053708 2.3759999
1.1253943 0.72713155 2.3759999
1.1336915 0.72864008 2.3759999
1.1450057 0.72524583 2.3759999
1.1555657 0.72713155 2.3759999
1.1631089 0.72864008 2.3759999
1.0922058 0.73618287 2.3759999
1.1148343 0.73467433 2.3759999
1.1269031 0.73316568 2.3759999
1.131429 0.73316568 2.3759999
1.0937144 0.74372578 2.3759999
1.129935 0.71987808 2.392
1.14816 0.71987808 2.392
1.152716 0.71987808 2.392
1.1754971 0.71987808 2.392
1.1846098 0.71987808 2.392
1.193722 0.71987808 2.392
1.202834 0.71987808 2.392
1.2347277 0.71228456 2.392
1.0866516 0.72899061 2.392
1.0957639 0.72899061 2.392
1.1276569 0.72671247 2.392
1.1367695 0.72671247 2.392
1.1451228 0.7259531 2.392
1.154994 0.72443432 2.392
1.1641071 0.72671247 2.392
1.170941 0.72899061 2.392
1.0866516 0.73354667 2.392
1.098042 0.73354667 2.392
1.104876 0.73582482 2.392
1.1132298 0.73658419 2.392
1.123101 0.73354667 2.392
1.107154 0.74493718 2.392
1.113989 0.74493718 2.392
1.2457969 0.64698857 2.4089999
1.2457969 0.65387148 2.4089999
1.2457969 0.66993147 2.4089999
1.1364363 0.7142877 2.4089999
1.238914 0.71581721 2.4089999
1.0851974 0.72958291 2.4089999
1.0951393 0.72805345 2.4089999
1.1035515 0.72728866 2.4089999
1.1150229 0.72499436 2.4090002
1.1269534 0.72591209 2.4090002
1.1349066 0.72193539 2.4089999
1.1448486 0.72499442 2.4089999
1.1540256 0.72270012 2.4089999
1.1639676 0.72193539 2.4089999
1.1746743 0.72728866 2.4089999
1.1869104 0.72652388 2.4089999
1.206794 0.72499442 2.4089999
1.227443 0.72040582 2.4089999
1.234326 0.72040582 2.4089999
1.115023 0.73417157 2.4089999
1.1257296 0.73570108 2.4089999
1.2476569 0.65617532 2.4260001
1.2545885 0.66541719 2.4260001
1.2545885 0.6700381 2.4260001
1.1436855 0.70700568 2.4260001
1.127512 0.71624768 2.4260001
1.1429152 0.71316695 2.4260001
1.252278 0.71624768 2.4260001
1.081303 0.72548962 2.4260001
1.1252015 0.72086859 2.4260001
1.1336734 0.72240895 2.4260001
1.1563933 0.7231791 2.4260001
1.1667905 0.72086859 2.4260001
1.1760325 0.7231791 2.4260001
1.182964 0.72548962 2.4260001
1.2268624 0.72548962 2.4260001
1.243036 0.72086859 2.4260001
1.081303 0.73011053 2.4260001
1.099787 0.73011053 2.4260001
1.187585 0.73011053 2.4260001
1.201448 0.73473138 2.4260001
1.2564 0.53513336 2.4430003
1.2564 0.60493332 2.4430001
1.2564 0.65146673 2.4430001
1.261053 0.65146673 2.4430001
1.251747 0.6631 2.4430001
1.2545389 0.67380267 2.4430001
1.2564 0.68404001 2.4430001
1.2633801 0.68404001 2.4430001
1.1354131 0.71661341 2.4430001
1.0739895 0.72312802 2.4430001
1.0888799 0.72592002 2.4430001
1.126107 0.72592002 2.4430001
1.15868 0.72126669 2.4430001
1.1633331 0.72359335 2.4430001
1.17264 0.72126669 2.4430001
1.1866 0.72592002 2.4430001
1.1912529 0.72592002 2.4430001
1.2028865 0.72592002 2.4430001
1.223827 0.72592002 2.4430001
1.23546 0.72592002 2.4430001
1.2447665 0.72592002 2.4430001
1.2564 0.72126669 2.4430001
1.265707 0.72126669 2.4430001
1.27036 0.72126669 2.4430001
1.098187 0.73522669 2.4430001
1.1051664 0.73290002 2.4430001
1.1144735 0.73057342 2.4430001
1.121453 0.73057342 2.4430001
1.195907 0.73057342 2.4430001
1.2052135 0.73057342 2.4430001
1.2168465 0.73057342 2.4430001
1.2261535 0.73057342 2.4430001
1.283886 0.41234291 2.46
1.2674861 0.52480006 2.46
1.274514 0.5294857 2.46
1.265143 0.53651422 2.46
1.2768569 0.53651428 2.46
1.2682672 0.54666674 2.46
1.2792 0.5458858 2.46
1.2674861 0.5552572 2.46
1.276076 0.55603814 2.46
1.267486 0.5646286 2.46
1.277638 0.56384766 2.46
1.283886 0.56228572 2.46
1.2674861 0.574 2.46
1.2768569 0.574 2.46
1.283886 0.574 2.46
1.2674861 0.58102858 2.46
1.2792 0.58102858 2.46
1.255772 0.6091429 2.46
1.268267 0.60601902 2.46
1.266705 0.61695242 2.46
1.2674861 0.62554288 2.46
1.274514 0.62554288 2.46
1.2674861 0.63491434 2.46
1.2660803 0.64475435 2.46
1.25421 0.65443814 2.46
1.2639716 0.65248573 2.46
1.244838 0.66380954 2.46
1.2534289 0.6630286 2.46
1.260457 0.66068572 2.46
1.244838 0.67161906 2.46
1.2534289 0.67474288 2.46
1.2464 0.68411428 2.46
1.2534289 0.6864571 2.46
1.260457 0.68645716 2.46
1.25421 0.69504762 2.46
1.2651432 0.69582856 2.46
1.274514 0.69582856 2.46
1.255772 0.70519996 2.46
1.265143 0.70519996 2.46
1.274514 0.70519996 2.46
1.255772 0.7122286 2.46
1.265143 0.71457148 2.46
1.2760761 0.71535242 2.46
1.0753715 0.7216 2.46
1.084743 0.7216 2.46
1.0941141 0.72628582 2.46
1.1370671 0.72472382 2.46
1.148 0.72394288 2.46
1.152686 0.72394288 2.46
1.166743 0.7216 2.46
1.176114 0.72628582 2.46
1.185486 0.72628582 2.46
1.190171 0.72628582 2.46
1.208914 0.72628582 2.46
1.2159431 0.72628582 2.46
1.2253139 0.72394294 2.46
1.2346859 0.72628582 2.46
1.2440569 0.72628582 2.46
1.25421 0.72472394 2.46
1.2639716 0.72277141 2.46
1.2768569 0.7216 2.46
1.1034861 0.73565722 2.46
1.1152 0.73253345 2.46
1.126914 0.73097152 2.46
1.204229 0.73097152 2.46
1.218286 0.73097152 2.46
1.2253139 0.73097152 2.46
1.237029 0.73097152 2.46
1.101143 0.74034292 2.46
1.29328 0.34928 2.4779999
1.2838399 0.354 2.4779999
1.29328 0.354 2.4779999
1.27676 0.39411998 2.4779999
1.28856 0.39647999 2.4779999
1.26968 0.40355998 2.4779999
1.27676 0.40356001 2.4779999
1.2854134 0.40434667 2.4780002
1.27676 0.41299999 2.4779999
1.2862 0.41299999 2.4779999
1.27676 0.42480001 2.4779999
1.2862 0.42480001 2.4779999
1.26968 0.43895999 2.4779999
1.27676 0.4366 2.4779999
1.2862 0.4366 2.4779999
1.26968 0.44603997 2.4779999
1.27676 0.44603997 2.4779999
1.2862 0.44603997 2.4779999
1.27676 0.45547998 2.4779999
1.2854134 0.45469332 2.4780002
1.26968 0.46491998 2.4779999
1.27676 0.46492001 2.4779999
1.2861999 0.46492001 2.4779999
1.26968 0.47435999 2.4779999
1.27676 0.47435999 2.4779999
1.2862 0.47435999 2.4779999
1.26968 0.48379999 2.4779999
1.2759733 0.48301336 2.4780002
1.2862 0.48380002 2.4779999
1.26968 0.49324 2.4779999
1.2759733 0.49245334 2.4780002
1.2861999 0.49324 2.4779999
1.2744 0.50032008 2.4779999
1.26968 0.51920003 2.4779999
1.27676 0.51920003 2.4779999
1.2838399 0.51920003 2.4779999
1.2681067 0.52549332 2.4780002
1.2838399 0.52627999 2.4779999
1.26732 0.53571999 2.4779999
1.2649601 0.54516006 2.4779999
1.2838399 0.54516006 2.4779999
1.26732 0.5546 2.4779999
1.2838399 0.55224001 2.4779999
1.26732 0.56404006 2.4779999
1.26732 0.57348001 2.4779999
1.2838399 0.57112002 2.4779999
1.26732 0.58528006 2.4779999
1.27676 0.58999997 2.4779999
1.2838399 0.58764005 2.4779999
1.26732 0.59708005 2.4779999
1.2759733 0.59629345 2.4780002
1.2649602 0.60652006 2.4779999
1.2744 0.60416001 2.4779999
1.26614 0.61596 2.4779999
1.27912 0.61831999 2.4779999
1.2659041 0.62587208 2.4779999
1.2659041 0.63436812 2.4779999
1.26732 0.64428002 2.4779999
1.24608 0.65608001 2.4779999
1.25316 0.65372002 2.4779999
1.2618134 0.65293336 2.4780002
1.2445067 0.66394663 2.4780002
1.2523735 0.6623733 2.4780002
1.2744 0.66552001 2.4779999
1.2437201 0.67496008 2.4779999
1.2508 0.67967999 2.4779999
1.2744 0.67496008 2.4779999
1.2437201 0.68676007 2.4779999
1.2523735 0.68597341 2.4780002
1.2445067 0.69698668 2.4780002
1.25316 0.69620001 2.4779999
1.24608 0.70327997 2.4779999
1.25316 0.70563996 2.4779999
1.26024 0.70563996 2.4779999
1.16584 0.71744013 2.4779999
1.17056 0.71744013 2.4779999
1.2445067 0.7158668 2.4780002
1.25316 0.71508014 2.4779999
1.26024 0.71508014 2.4779999
1.07616 0.72215998 2.4779999
1.08324 0.72215998 2.4779999
1.0997601 0.72688007 2.4779999
1.10448 0.72688007 2.4779999
1.13516 0.72688007 2.4779999
1.1446 0.72452003 2.4779999
1.15404 0.72215998 2.4779999
1.1611201 0.72215998 2.4779999
1.17764 0.72452003 2.4779999
1.18708 0.72688007 2.4779999
1.19652 0.72688007 2.4779999
1.21776 0.72452003 2.4779999
1.2240534 0.72530669 2.4780002
1.23428 0.72215998 2.4779999
1.2437201 0.72451997 2.4779999
1.25316 0.72452003 2.4779999
1.2618134 0.72373337 2.4780002
1.1092 0.73632002 2.4779999
1.1170666 0.73474669 2.4780002
1.12572 0.73159999 2.4779999
1.13516 0.73159999 2.4779999
1.20596 0.73159999 2.4779999
1.21304 0.73159999 2.4779999
1.288411 0.34706289 2.4960001
1.288411 0.35419428 2.4960001
1.2868264 0.36449525 2.4960001
1.286034 0.37321144 2.4960001
1.278903 0.38985139 2.4960001
1.2855586 0.38414627 2.4960001
1.269394 0.39936 2.4960001
1.276526 0.39698285 2.4960001
1.269394 0.40649146 2.4960001
1.2741489 0.40649146 2.4960001
1.269394 0.41362289 2.4960001
1.276526 0.41600004 2.4960001
1.269394 0.42313141 2.4960001
1.276526 0.42550856 2.4960001
1.276526 0.43501714 2.4960001
1.2741489 0.44452575 2.4960001
1.2757337 0.45482665 2.4960001
1.269394 0.46592 2.4960001
1.2757337 0.46275049 2.4960001
1.269394 0.47067431 2.4960001
1.2741489 0.47305146 2.4960001
1.2741489 0.48493716 2.4960001
1.2741489 0.49682283 2.4960001
1.2773184 0.50553906 2.4960001
1.276526 0.51583993 2.4960001
1.269394 0.5277257 2.4960001
1.2741489 0.52297139 2.4960001
1.269394 0.53248 2.4960001
1.2741489 0.53485715 2.4960001
1.269394 0.54198861 2.4960001
1.2678094 0.55466676 2.4960001
1.2678094 0.56417525 2.4960001
1.267017 0.57289147 2.4960001
1.2693942 0.58477712 2.4960001
1.267017 0.59666288 2.4960001
1.2662247 0.60537905 2.4960001
1.26464 0.61567998 2.4960001
1.2678094 0.6243962 2.4960001
1.269394 0.64420569 2.4960001
1.245623 0.65609139 2.4960001
1.2440383 0.66243047 2.4960001
1.2503771 0.66322285 2.4960001
1.2437214 0.6741578 2.4960001
1.245623 0.68699437 2.4960001
1.245623 0.69650286 2.4960001
1.2503771 0.69888002 2.4960001
1.245623 0.70363432 2.4960001
1.2503771 0.70838863 2.4960001
1.245623 0.71789712 2.4960001
1.2519617 0.71472758 2.4960001
1.062583 0.72265142 2.4960001
1.136274 0.72740573 2.4960001
1.1434059 0.72740573 2.4960001
1.150537 0.72740573 2.4960001
1.1648 0.72265142 2.4960001
1.1869863 0.72423619 2.4960001
1.195703 0.72740573 2.4960001
1.202834 0.72740573 2.4960001
1.221851 0.72740573 2.4960001
1.236114 0.72740573 2.4960001
1.2432461 0.72265142 2.4960001
1.117257 0.73691428 2.4960001
1.1243885 0.73453712 2.4960001
1.1338971 0.73215997 2.4960001
1.21472 0.73215997 2.4960001
1.221851 0.73215997 2.4960001
1.278549 0.36872 2.5139999
1.278549 0.37590289 2.5139999
1.278549 0.38547999 2.5139999
1.268971 0.39745149 2.5139999
1.2769527 0.39585531 2.5139999
1.266577 0.4046343 2.5139999
1.27376 0.4046343 2.5139999
1.267375 0.41341338 2.5139999
1.27376 0.41421145 2.5139999
1.268971 0.42378861 2.5139999
1.2753563 0.4229905 2.5139999
1.2761545 0.4333657 2.5139999
1.268971 0.44294292 2.5139999
1.2761545 0.44294292 2.5139999
1.268971 0.45012569 2.5139999
1.2761545 0.45491433 2.5139999
1.268971 0.46928 2.5139999
1.2753563 0.46608767 2.5139999
1.268971 0.47406861 2.5139999
1.2753563 0.47726101 2.5139999
1.27376 0.53392577 2.5139999
1.268971 0.54589713 2.5139999
1.268971 0.55308008 2.5139999
1.268971 0.56505144 2.5139999
1.268971 0.57702291 2.5139999
1.265779 0.59697533 2.5139999
1.267375 0.60495621 2.5139999
1.268971 0.61533153 2.5139999
1.268971 0.62490869 2.5139999
1.2354521 0.65603441 2.5139999
1.2426345 0.66321719 2.5139999
1.246226 0.67399144 2.5139999
1.249817 0.68716002 2.5139999
1.249817 0.69434291 2.5139999
1.249817 0.70870858 2.5139999
1.254606 0.71589148 2.5139999
1.058274 0.72786289 2.5139999
1.063063 0.72786289 2.5139999
1.0774291 0.72307432 2.5139999
1.082217 0.72307432 2.5139999
1.134892 0.72786289 2.5139999
1.15644 0.72786289 2.5139999
1.163623 0.72786289 2.5139999
1.2043254 0.72786289 2.5139999
1.2450287 0.72546864 2.5139999
1.125314 0.73743999 2.5139999
1.1336945 0.73384863 2.5139999
1.216297 0.73265147 2.5139999
1.22348 0.73265147 2.5139999
1.266 0.38341716 2.5320001
1.266 0.39306289 2.5320001
1.2664822 0.4041554 2.5320001
1.273234 0.40029711 2.5320001
1.268411 0.41717714 2.5320001
1.268411 0.47505146 2.5320001
1.266 0.48469713 2.5320001
1.266 0.49434286 2.5320001
1.253943 0.50157708 2.5320001
1.266 0.5039885 2.5320001
1.266 0.51122278 2.5320001
1.2587661 0.58356571 2.5320001
1.2587661 0.5956229 2.5320001
1.2587661 0.63661712 2.5320001
1.234651 0.64626282 2.5320001
1.2587661 0.6438514 2.5320001
1.2370625 0.65108567 2.5320001
1.244297 0.65108567 2.5320001
1.2563546 0.6534971 2.5320001
1.2394741 0.6631428 2.5320001
1.2467085 0.6631428 2.5320001
1.2571584 0.66233897 2.5320001
1.2394741 0.67037708 2.5320001
1.2459047 0.67359233 2.5320001
1.2471908 0.68388122 2.5320001
1.253943 0.6896686 2.5320001
1.24912 0.69690287 2.5320001
1.253943 0.69690287 2.5320001
1.24912 0.70654857 2.5320001
1.2563546 0.70654857 2.5320001
1.2394741 0.7186057 2.5320001
1.24912 0.71619427 2.5320001
1.2555507 0.7169981 2.5320001
1.06344 0.7282514 2.5320001
1.0730855 0.7282514 2.5320001
1.08032 0.7282514 2.5320001
1.094789 0.7282514 2.5320001
1.1068455 0.7282514 2.5320001
1.1164916 0.72583997 2.5320001
1.1261375 0.72583997 2.5320001
1.1357825 0.7282514 2.5320001
1.1454285 0.7282514 2.5320001
1.152663 0.7282514 2.5320001
1.1671309 0.7282514 2.5320001
1.1735618 0.7266438 2.5320001
1.1840115 0.72583997 2.5320001
1.1928537 0.7266438 2.5320001
1.2033025 0.7282514 2.5320001
1.2129486 0.7282514 2.5320001
1.2259706 0.72632229 2.5320001
1.2378664 0.7266438 2.5320001
1.2475123 0.7266438 2.5320001
1.2563546 0.72342861 2.5320001
1.0537945 0.7378971 2.5320001
1.061029 0.73307431 2.5320001
1.099611 0.73307431 2.5320001
1.1172955 0.7362895 2.5320001
1.1269414 0.7362895 2.5320001
1.1349787 0.73468196 2.5320001
1.14784 0.73307431 2.5320001
1.1550745 0.73307431 2.5320001
1.225006 0.73307437 2.5320001
1.2370625 0.73307431 2.5320001
1.244297 0.73307431 2.5320001
1.268211 0.35956949 2.5510001
1.268211 0.36685812 2.5510001
1.2665914 0.37738603 2.5510001
1.2584929 0.38386479 2.5510001
1.2657815 0.38629434 2.5510001
1.2657815 0.39601243 2.5510001
1.2657815 0.40573049 2.5510001
1.2584929 0.48590481 2.5510001
1.248775 0.49319336 2.5510001
1.2560635 0.49319336 2.5510001
1.248775 0.50291151 2.5510001
1.2560635 0.50291151 2.5510001
1.248775 0.51020002 2.5510001
1.2565494 0.51408732 2.5510004
1.2584929 0.52720666 2.5510001
1.2584929 0.54907238 2.5510001
1.2584929 0.55636096 2.5510001
1.2568734 0.56688893 2.5510001
1.2560635 0.57579714 2.5510001
1.2560635 0.58551526 2.5510001
1.2560635 0.59523332 2.5510001
1.2560635 0.60495138 2.5510001
1.2390569 0.64625329 2.5510001
1.2471554 0.64463365 2.5510001
1.2390569 0.65354192 2.5510001
1.2390569 0.66326004 2.5510001
1.2463455 0.66326004 2.5510001
1.2366275 0.6729781 2.5510001
1.243916 0.6729781 2.5510001
1.2463455 0.68512577 2.5510004
1.2463455 0.69727337 2.5510001
1.2390569 0.70942098 2.5510001
1.2463455 0.70699143 2.5510001
1.190467 0.71913898 2.5510001
1.2277193 0.71751928 2.5510001
1.2366275 0.71670949 2.5510001
1.2463455 0.71670949 2.5510001
1.06899 0.72885722 2.5510001
1.0762795 0.72885722 2.5510001
1.0859975 0.72885722 2.5510001
1.1151515 0.72885722 2.5510001
1.127299 0.72399813 2.5510001
1.1345875 0.72399813 2.5510001
1.151594 0.72885722 2.5510001
1.1742704 0.72723758 2.5510001
1.1831785 0.72642767 2.5510001
1.1928965 0.72399813 2.5510001
1.2060158 0.72594178 2.5510004
1.2180014 0.72723758 2.5510001
1.2269095 0.72642767 2.5510001
1.2366275 0.72399813 2.5510001
1.243916 0.72642767 2.5510001
1.0592721 0.73857528 2.5510001
1.064131 0.73614573 2.5510001
1.1078629 0.73371619 2.5510001
1.1151515 0.73857528 2.5510001
1.12244 0.73857528 2.5510001
1.132158 0.73857528 2.5510001
1.166172 0.73371619 2.5510001
1.171031 0.73371619 2.5510001
1.054413 0.74343431 2.5510001
1.258076 0.38182861 2.5699999
1.248286 0.49931431 2.5699999
1.253181 0.4968667 2.5699999
1.248286 0.50420958 2.5699999
1.253181 0.50665718 2.5699999
1.2368634 0.65433025 2.5700002
1.238495 0.66085708 2.5699999
1.243391 0.66085708 2.5699999
1.2458385 0.69267619 2.5699999
1.135695 0.71960008 2.5699999
1.1430385 0.71960008 2.5699999
1.199333 0.71960008 2.5699999
1.2360475 0.71715248 2.5699999
1.243391 0.71470481 2.5699999
1.0451335 0.7293905 2.5699999
1.076952 0.7293905 2.5699999
1.0842955 0.7293905 2.5699999
1.091638 0.7293905 2.5699999
1.135695 0.72449517 2.5699999
1.1430385 0.72449517 2.5699999
1.150381 0.72694284 2.5699999
1.1626195 0.7293905 2.5699999
1.1773045 0.7269429 2.5699999
1.184648 0.72449517 2.5699999
1.194438 0.7293905 2.5699999
1.2066765 0.72449517 2.5699999
1.2140189 0.72449517 2.5699999
1.2262576 0.72694284 2.5699999
1.057371 0.73673338 2.5699999
1.0655303 0.73754925 2.5700002
1.072057 0.73428577 2.5699999
1.1038765 0.73428577 2.5699999
1.1136665 0.73428577 2.5699999
1.1528285 0.73428577 2.5699999
1.1675146 0.73428577 2.5699999
1.174857 0.73428577 2.5699999
1.0622669 0.74407619 2.5699999
1.237789 0.65587997 2.589
1.237789 0.66081148 2.589
1.1860085 0.71998858 2.589
1.193406 0.71998858 2.589
1.0429975 0.72985148 2.589
1.119434 0.72985148 2.589
1.1276534 0.72820771 2.5890002
1.13916 0.72738576 2.589
1.176146 0.72738576 2.589
1.1860085 0.72492009 2.589
1.1958715 0.72738576 2.589
1.203269 0.72738576 2.589
1.065189 0.73478287 2.589
1.0738188 0.73601574 2.589
1.10464 0.73478287 2.589
1.119434 0.73478287 2.589
1.1268315 0.73478287 2.589
1.13916 0.73478287 2.589
1.163817 0.73478287 2.589
1.178612 0.73478287 2.589
